# .PCD v0.7 - Point Cloud Data file format
VERSION 0.7
FIELDS x y z rgb
SIZE 4 4 4 4
TYPE F F F U
COUNT 1 1 1 1
WIDTH 170
HEIGHT 1
VIEWPOINT 0 0 0 1 0 0 0
POINTS 170
DATA ascii
0.0057454081 0.26314479 -1.2737924 10461342
0.0034471999 0.26314476 -1.2737923 10330528
0.006511461 0.26697445 -1.2737893 9342087
0.0026811247 0.26697448 -1.2737893 9803669
-0.013099866 0.26682127 -1.2737893 9408397
0.022981832 0.27233604 -1.273785 9671310
0.018385431 0.27348495 -1.2737842 9342861
0.012641169 0.27350721 -1.2738882 8882568
0.0068944721 0.27233604 -1.273785 9541012
0.0022980832 0.27233604 -1.2737851 9475735
-0.0022983057 0.27233604 -1.2737851 9147284
-0.0068946946 0.27233601 -1.273785 9146768
-0.012640181 0.27233601 -1.273785 10263963
-0.017236546 0.27463382 -1.2737832 8488066
0.021832656 0.27808052 -1.2737803 10395292
0.018385377 0.27808052 -1.2737803 9672599
0.012639911 0.27808052 -1.2737805 8621454
0.0068944474 0.27808052 -1.2737803 9146511
0.002298075 0.27808052 -1.2737803 9540497
-0.0022982976 0.27808052 -1.2737803 9408911
-0.00689467 0.27808052 -1.2737805 8883340
-0.012640134 0.27808052 -1.2737803 8161676
-0.0183856 0.27808052 -1.2737805 9738648
-0.022981957 0.2792294 -1.2737795 10395292
-0.027578343 0.27808052 -1.2737803 10000534
-0.031026354 0.27808702 -1.2738104 8619138
0.026428932 0.28382495 -1.2737758 8422016
0.022981683 0.28267604 -1.2737768 9738648
0.018385325 0.28267604 -1.2737768 8424589
0.012639876 0.28267607 -1.2737769 9540240
0.0068944274 0.28267604 -1.2737768 9408398
0.0022980683 0.28267607 -1.2737768 9079689
-0.0022982908 0.28267607 -1.2737768 9276811
-0.0068946499 0.28267607 -1.2737768 9474446
-0.012640099 0.28267607 -1.2737769 9474704
-0.018385546 0.28267604 -1.2737767 8424589
-0.022981906 0.28267604 -1.2737767 9672855
-0.027578264 0.28267607 -1.2737768 9867915
0.035621569 0.28727162 -1.2737732 9275265
0.032174304 0.28727159 -1.273773 10395548
0.027577963 0.28727159 -1.273773 10263962
0.022981618 0.28727159 -1.2737731 8161933
0.018385271 0.28727159 -1.273773 9474704
0.012639838 0.28727159 -1.2737731 9211018
0.0068944073 0.28727159 -1.2737731 8421760
0.0022980615 0.28727162 -1.2737731 8948104
-0.0022982841 0.28727162 -1.2737731 9013896
-0.0068946294 0.28727159 -1.2737731 8684675
-0.012640063 0.28727159 -1.2737731 9211018
-0.018385492 0.28727159 -1.273773 9474704
-0.022981841 0.28727162 -1.2737731 8555919
-0.02719515 0.28765455 -1.2737727 9737876
0.031791192 0.29148412 -1.2737697 9800574
0.027577883 0.29186708 -1.2737694 9738648
0.022981549 0.29186708 -1.2737694 8424075
0.018385217 0.29186708 -1.2737694 9540239
0.012639802 0.29186708 -1.2737694 8816517
0.0068943873 0.29186711 -1.2737694 10132120
0.002298055 0.29186711 -1.2737694 10263449
-0.0022982778 0.29186711 -1.2737694 10132120
-0.0068946104 0.29186711 -1.2737694 10066327
-0.012640025 0.29186708 -1.2737694 8750724
-0.01838544 0.29186708 -1.2737694 9539983
-0.022981772 0.29186708 -1.2737694 8818062
-0.027578108 0.29186708 -1.2737694 9804185
-0.032174416 0.29301596 -1.2737684 8092794
0.03102502 0.29761145 -1.2737647 10197138
0.027577786 0.29761145 -1.2737647 8753298
0.022981467 0.29761145 -1.2737647 9277582
0.018385151 0.29761145 -1.2737647 9342603
0.012639757 0.2976115 -1.2737647 9277068
0.0068943617 0.29761145 -1.2737647 10132376
0.0022980466 0.29761145 -1.2737647 10197912
-0.0022982692 0.29761147 -1.2737647 10132120
-0.0068945847 0.29761145 -1.2737647 10263705
-0.012639981 0.29761145 -1.2737647 9277068
-0.018385375 0.29761145 -1.2737647 9145483
-0.02298169 0.29761145 -1.2737647 9474961
-0.027578006 0.29761145 -1.2737647 9147541
-0.032174323 0.29761145 -1.2737648 10066325
-0.036770668 0.2964626 -1.2737658 10066068
0.036396742 0.30381927 -1.2740993 8751753
0.032173984 0.30335575 -1.2737603 9935255
0.027577687 0.30335575 -1.2737603 9081749
0.022981385 0.30335575 -1.2737603 9540497
0.018385086 0.30335575 -1.2737603 9079690
0.012639712 0.30335578 -1.2737602 9342862
0.0068943375 0.30335575 -1.2737602 10263705
0.0022980382 0.30335575 -1.2737602 10132120
-0.0022982608 0.30335575 -1.2737602 10132120
-0.0068945601 0.30335575 -1.2737602 10132376
-0.012639936 0.30335575 -1.2737603 9342861
-0.018385308 0.30335575 -1.2737603 9276811
-0.022981608 0.30335575 -1.2737603 9408911
-0.027577909 0.30335575 -1.2737603 8556176
-0.031025134 0.30335575 -1.2737603 10395549
0.036770202 0.3068023 -1.2737575 10329756
0.031790875 0.30756819 -1.2737569 9999760
0.027577605 0.30795115 -1.2737565 9541783
0.02298132 0.30795115 -1.2737565 9146511
0.018385032 0.30795115 -1.2737565 9408654
0.012639675 0.30795118 -1.2737565 8948104
0.0068943179 0.30795115 -1.2737565 10263705
0.0022980317 0.30795115 -1.2737565 10132376
-0.0022982543 0.30795115 -1.2737565 10263705
-0.0068945405 0.30795115 -1.2737565 10263705
-0.012639898 0.30795118 -1.2737565 9079432
-0.018385256 0.30795115 -1.2737565 9474446
-0.022981541 0.30795115 -1.2737565 8817804
-0.027577829 0.30795115 -1.2737565 9344662
-0.031025043 0.30795115 -1.2737565 9341314
0.027577525 0.31254655 -1.2737529 9868946
0.022981253 0.31254655 -1.2737529 8555662
0.01838498 0.31254658 -1.2737529 9606032
0.012639639 0.31254655 -1.2737528 8816517
0.0068942984 0.31254658 -1.2737529 9276812
0.0022980252 0.31254655 -1.2737529 9868948
-0.002298248 0.31254655 -1.2737529 9934741
-0.0068945209 0.31254658 -1.2737529 9211275
-0.012639862 0.31254652 -1.2737528 8816517
-0.018385204 0.31254658 -1.2737529 9540240
-0.022981478 0.31254658 -1.273753 8095626
-0.027577749 0.31254658 -1.2737529 10132634
-0.032174025 0.31254658 -1.273753 9605775
-0.0356212 0.3136954 -1.273752 9079175
0.027194418 0.31752488 -1.273749 8948103
0.022981187 0.31714192 -1.2737492 9015699
0.018384926 0.31714189 -1.2737492 8949390
0.012639602 0.31714189 -1.2737492 9540239
0.0068942788 0.31714192 -1.2737494 8948103
0.0022980187 0.31714195 -1.2737492 8619138
-0.0022982412 0.31714192 -1.2737494 8487554
-0.0068945009 0.31714195 -1.2737494 8816518
-0.012639825 0.31714189 -1.2737492 9539983
-0.01838515 0.31714189 -1.2737491 8883854
-0.022981409 0.31714192 -1.2737492 8950163
-0.027194656 0.31675899 -1.2737496 10065553
-0.032173958 0.31599313 -1.2737503 10395548
-0.035621151 0.3159931 -1.2737502 9603455
0.031024531 0.32288608 -1.2737447 10527135
0.027577369 0.32173726 -1.2737455 10263963
0.022981118 0.32173723 -1.2737455 10198170
0.018384874 0.32173726 -1.2737455 8818833
0.012639566 0.32173726 -1.2737455 8818061
0.0068942588 0.32173726 -1.2737457 9540239
0.0022980119 0.32173723 -1.2737455 9606032
-0.0022982345 0.32173723 -1.2737455 9474447
-0.0068944814 0.32173726 -1.2737457 9540240
-0.01263979 0.32173726 -1.2737455 9080975
-0.018385097 0.32173726 -1.2737455 8884369
-0.022598328 0.3213543 -1.2737459 10263964
0.027577311 0.32518375 -1.2737429 10196879
0.018001808 0.32594964 -1.2737423 10000018
0.012639522 0.32748139 -1.273741 9475734
0.0068942336 0.32748139 -1.2737411 9015698
0.0022980038 0.32748139 -1.2737411 8752783
-0.0022982263 0.32748139 -1.2737409 9278612
-0.0068944572 0.32748139 -1.2737409 9278612
-0.012352482 0.32719418 -1.2737414 9343890
-0.018385032 0.32748139 -1.2737409 9934224
-0.022751445 0.32794091 -1.2737408 10066327
0.012639477 0.33322549 -1.2737365 10197138
0.0068942141 0.33207667 -1.2737374 9800575
0.002297997 0.33207667 -1.2737374 10395549
-0.002298218 0.33322549 -1.2737365 10000275
-0.0068944315 0.33322549 -1.2737365 9603971
-0.02183214 0.33207664 -1.2737373 10592927
0.013788499 0.33667192 -1.2737337 9735040
-0.0034472616 0.33782074 -1.2737329 10264477
-0.005745362 0.33782077 -1.2737329 9802124
