# .PCD v0.7 - Point Cloud Data file format
VERSION 0.7
FIELDS x y z rgb
SIZE 4 4 4 4
TYPE F F F U
COUNT 1 1 1 1
WIDTH 1171
HEIGHT 1
VIEWPOINT 0 0 0 1 0 0 0
POINTS 1171
DATA ascii
0.51987755 0.22787808 -1.093528 2697512
0.33585489 0.22751467 -1.0917841 2697511
0.1468185 0.2276181 -1.0922805 2697255
0.51988149 0.23281226 -1.0935363 2631719
0.33585867 0.23244184 -1.0917964 2697255
0.14682242 0.2325511 -1.0923096 2697255
0.51988548 0.23774655 -1.0935447 2631718
0.33586246 0.23736912 -1.0918087 2631719
0.14682636 0.2374844 -1.0923389 2631719
0.51988947 0.24268091 -1.0935531 2565926
0.33586621 0.24229652 -1.091821 2565926
0.14683026 0.2424179 -1.0923679 2631718
0.51989335 0.24761529 -1.0935613 2565926
0.33587003 0.24722405 -1.0918332 2565926
0.14683418 0.24735172 -1.0923971 2631462
0.51989734 0.2525498 -1.0935696 2631719
0.33587381 0.25215167 -1.0918456 2631462
0.14683811 0.25228578 -1.0924263 2631462
0.51990128 0.25748441 -1.0935779 2500133
0.33587757 0.25707939 -1.0918579 2565669
0.14684203 0.25722012 -1.0924555 2565926
0.51990527 0.26241904 -1.0935863 2565926
0.33588213 0.26299283 -1.0918727 2565925
0.14684595 0.26215467 -1.0924847 2565926
0.51990843 0.26636684 -1.093593 2631719
0.41200811 0.26844445 -1.0900118 3092271
0.4070974 0.26844835 -1.0900276 3092527
0.40218654 0.26845223 -1.0900432 3158063
0.39727557 0.2684561 -1.0900589 3158064
0.39236441 0.26845995 -1.0900745 3223856
0.38745314 0.26846379 -1.0900903 3289649
0.38254172 0.26846766 -1.0901059 3289649
0.37763017 0.26847151 -1.0901215 3355442
0.37271848 0.26847541 -1.0901374 3355442
0.36878905 0.26847848 -1.0901499 3355442
0.33563539 0.26772022 -1.0910707 2829098
0.33243796 0.26850766 -1.0902684 3223599
0.32752505 0.26851159 -1.0902843 3223599
0.3226119 0.26851547 -1.0903001 3289392
0.3176986 0.26851931 -1.0903158 3289648
0.31278515 0.26852319 -1.0903313 3355185
0.30787158 0.26852703 -1.0903472 3355441
0.30197513 0.26853168 -1.0903659 3355441
0.29706123 0.26853555 -1.0903816 3355441
0.29214719 0.26853943 -1.0903974 3355441
0.28723302 0.2685433 -1.0904131 3355441
0.28231868 0.26854712 -1.0904287 3355441
0.27740425 0.26855102 -1.0904443 3355441
0.27248967 0.26855487 -1.0904602 3289649
0.26757494 0.26855874 -1.0904758 3289392
0.26266003 0.26856261 -1.0904914 3223855
0.25774503 0.26856649 -1.0905071 3223855
0.25282985 0.26857033 -1.0905228 3223855
0.24791455 0.26857421 -1.0905385 3223855
0.24299911 0.26857805 -1.0905542 3223855
0.23710039 0.2685827 -1.0905732 3289392
0.23218463 0.26858658 -1.0905888 3223855
0.22726873 0.26859042 -1.0906044 3158062
0.2223527 0.26859432 -1.0906202 3158062
0.21743652 0.26859817 -1.0906359 3158062
0.21252018 0.26860201 -1.0906515 3223855
0.20760372 0.26860592 -1.0906672 3223856
0.20268711 0.26860976 -1.090683 3289648
0.19777037 0.26861361 -1.0906986 3289649
0.19285348 0.26861748 -1.0907142 3289905
0.18793646 0.26862136 -1.0907301 3289905
0.1830193 0.26862523 -1.0907457 3421491
0.14677607 0.2669543 -1.0919646 2697769
0.14269486 0.26866016 -1.0908875 3355699
0.1377757 0.26866281 -1.0908983 3355699
0.13384032 0.26866496 -1.0909071 3158320
0.51980537 0.1376247 -1.0975417 2829355
0.33578563 0.13768207 -1.0979987 2829098
0.51980913 0.14257625 -1.0975494 2697512
0.33578959 0.14263633 -1.0980117 2631976
0.519813 0.14752793 -1.0975577 2565670
0.33579341 0.14759065 -1.0980242 2565926
0.51981699 0.15247969 -1.097566 2565926
0.33579722 0.15254509 -1.0980368 2565927
0.51982099 0.15743154 -1.0975745 2565927
0.33580101 0.15749964 -1.0980492 2565927
0.51982498 0.16238345 -1.0975828 2565926
0.33580485 0.16245431 -1.0980617 2565926
0.51982898 0.16733547 -1.0975913 2565927
0.33580866 0.16740908 -1.0980741 2565927
0.51983291 0.17228752 -1.0975996 2565926
0.33581245 0.17236397 -1.0980866 2500134
0.5198369 0.1772397 -1.0976081 2565926
0.33581626 0.17731895 -1.0980991 2565926
0.51984084 0.18219188 -1.0976164 2565926
0.33582008 0.18227407 -1.0981115 2631463
0.51984489 0.1871442 -1.0976248 2631719
0.33582383 0.18722928 -1.0981239 2697512
0.51984882 0.19209655 -1.0976331 2631720
0.33582768 0.19218461 -1.0981363 2631720
0.51985282 0.19704902 -1.0976416 2631719
0.33583146 0.19714005 -1.0981487 2631719
0.51985759 0.20299204 -1.0976516 2631719
0.33583528 0.20209563 -1.0981612 2631719
0.51986158 0.20794466 -1.0976601 2631719
0.33583909 0.20705128 -1.0981737 2631719
0.51986551 0.21289736 -1.0976684 2697255
0.33584368 0.21299827 -1.0981886 2697511
0.51986951 0.21785012 -1.0976769 2763305
0.33584747 0.21795416 -1.098201 2697512
0.51987344 0.22280295 -1.0976852 2631719
0.33585131 0.22291021 -1.0982136 2631719
0.51987743 0.22775589 -1.0976937 2763305
0.33585507 0.22786634 -1.098226 2697512
0.51988137 0.23270889 -1.097702 2697512
0.33585888 0.2328226 -1.0982385 2631719
0.51988536 0.23766193 -1.0977104 2631462
0.3358627 0.23777896 -1.0982509 2631718
0.5198893 0.2426151 -1.0977187 2565926
0.33586651 0.24273546 -1.0982634 2631462
0.51989329 0.24756831 -1.0977271 2565926
0.3358703 0.24769203 -1.0982758 2631462
0.51989728 0.2525216 -1.0977355 2565926
0.33587414 0.25264874 -1.0982882 2565926
0.51990128 0.25747496 -1.097744 2500133
0.33587793 0.25760555 -1.0983007 2565925
0.51990527 0.2624284 -1.0977523 2565926
0.33588174 0.26256251 -1.0983132 2565926
0.56636059 0.26832825 -1.0975807 4208429
0.56240451 0.26833037 -1.0975895 3487028
0.51841652 0.26787335 -1.0977453 3092270
0.51198679 0.26837224 -1.0977607 3421492
0.50704283 0.26837623 -1.0977771 3487285
0.5020985 0.26838014 -1.097793 3421492
0.49715406 0.26838401 -1.0978088 3421492
0.49220946 0.26838791 -1.0978248 3421235
0.48726472 0.26839179 -1.0978407 3421235
0.48231983 0.26839569 -1.0978566 3421235
0.47737476 0.26839957 -1.0978725 3355442
0.47242963 0.26840344 -1.0978884 3224112
0.46748433 0.26840734 -1.0979043 3158319
0.46253878 0.26841122 -1.0979202 3158319
0.45759323 0.26841515 -1.0979362 3223856
0.45264745 0.26841903 -1.097952 3223856
0.4477016 0.2684229 -1.097968 3223857
0.44275552 0.26842681 -1.0979838 3223857
0.43780938 0.26843068 -1.0979998 3223857
0.43286303 0.26843455 -1.0980157 3223856
0.42791659 0.26843846 -1.0980315 3223856
0.42296997 0.26844236 -1.0980474 3223856
0.41703382 0.26844701 -1.0980664 3158064
0.4120869 0.26845092 -1.0980825 3158064
0.40713984 0.26845479 -1.0980984 3158064
0.40219262 0.26845869 -1.0981143 3158064
0.39724529 0.2684626 -1.0981303 3158064
0.39229777 0.26846647 -1.0981462 3223857
0.38735014 0.26847038 -1.0981621 3289649
0.38240233 0.26847422 -1.0981779 3355441
0.37745443 0.26847816 -1.0981938 3355441
0.37250635 0.26848203 -1.0982099 3355442
0.33588555 0.26751953 -1.0983256 2763305
0.33291709 0.26851356 -1.0983388 3289649
0.32796791 0.26851761 -1.0983553 3289905
0.32202864 0.26852241 -1.098375 3355441
0.31707892 0.26852632 -1.0983908 3355442
0.31212908 0.26853019 -1.0984068 3355441
0.30717912 0.26853409 -1.0984228 3289649
0.30222899 0.268538 -1.0984386 3289649
0.29727873 0.26854187 -1.0984545 3289649
0.2923283 0.26854578 -1.0984706 3289905
0.28737777 0.26854968 -1.0984864 3289905
0.28242707 0.26855356 -1.0985023 3289649
0.27747625 0.26855746 -1.0985184 3289649
0.27252522 0.26856133 -1.0985342 3289648
0.2675741 0.26856524 -1.0985501 3289392
0.26262283 0.26856911 -1.0985659 3223856
0.25767145 0.26857302 -1.098582 3223856
0.25271988 0.26857695 -1.0985979 3289392
0.24776818 0.26858079 -1.0986137 3289392
0.24281634 0.2685847 -1.0986298 3223855
0.23786435 0.2685886 -1.0986457 3223855
0.23291221 0.26859248 -1.0986615 3223855
0.22795993 0.26859638 -1.0986775 3223855
0.22300753 0.26860029 -1.0986935 3223855
0.21706441 0.26860493 -1.0987126 3223855
0.21211168 0.26860884 -1.0987284 3289648
0.20715879 0.26861274 -1.0987444 3355441
0.20220579 0.26861662 -1.0987604 3355442
0.19725262 0.26862052 -1.0987762 3355442
0.19229931 0.26862442 -1.0987923 3355442
0.18734585 0.26862833 -1.0988082 3355698
0.18338297 0.2686314 -1.0988208 3618613
0.14573325 0.26866487 -1.0989577 3289906
0.14275995 0.26866648 -1.0989642 3355442
0.13780437 0.26866916 -1.0989752 3355699
0.13383985 0.26867127 -1.0989839 3421235
0.13249829 0.10261154 -1.1043286 2697512
0.13250229 0.10759593 -1.104362 2697512
0.13250628 0.11258062 -1.1043952 2697512
0.13251027 0.11756559 -1.1044284 2697512
0.13251427 0.12255088 -1.1044617 2697512
0.13251826 0.12753645 -1.1044949 2697769
0.1325213 0.13152499 -1.1045203 2631976
0.51980519 0.13715705 -1.1017382 2960941
0.3357853 0.13750263 -1.1045141 2829611
0.51980889 0.14212751 -1.101746 2631719
0.33578926 0.14248629 -1.1045271 2631976
0.5198127 0.14709809 -1.1017542 2434340
0.33579323 0.14747007 -1.1045402 2565926
0.5198167 0.15206879 -1.1017625 2565926
0.3357971 0.15245391 -1.1045529 2566183
0.51982069 0.15703955 -1.1017711 2631719
0.33580092 0.15743786 -1.1045655 2631720
0.51982462 0.1620104 -1.1017795 2631719
0.33580473 0.16242193 -1.1045781 2631719
0.51982939 0.1679755 -1.1017895 2565926
0.33580855 0.1674061 -1.1045907 2565927
0.51983345 0.17294654 -1.1017981 2500134
0.33581245 0.1723904 -1.1046033 2500134
0.51983744 0.17791764 -1.1018065 2565926
0.33581623 0.17737481 -1.1046159 2565927
0.51984143 0.18288881 -1.101815 2631719
0.33582008 0.18235932 -1.1046284 2631719
0.51984537 0.18786006 -1.1018233 2697512
0.33582386 0.18734394 -1.104641 2697512
0.51984942 0.19283137 -1.1018319 2697255
0.33582774 0.19232869 -1.1046537 2697512
0.51985335 0.19780278 -1.1018403 2631719
0.33583155 0.19731356 -1.1046662 2697512
0.51985741 0.20277424 -1.1018488 2565926
0.33583537 0.20229852 -1.1046788 2631719
0.51986134 0.20774579 -1.1018572 2631719
0.33583918 0.20728359 -1.1046914 2631719
0.51986533 0.21271741 -1.1018656 2697255
0.33584303 0.21226881 -1.104704 2631719
0.51986933 0.21768911 -1.1018741 2631719
0.33584687 0.21725413 -1.1047167 2565926
0.51987326 0.22266088 -1.1018825 2631719
0.33585072 0.22223955 -1.1047293 2631719
0.51987731 0.22763276 -1.101891 2565926
0.33585453 0.2272251 -1.1047418 2631975
0.51988131 0.23260468 -1.1018995 2566182
0.33585837 0.23221076 -1.1047544 2631719
0.51988524 0.23757671 -1.101908 2631462
0.33586219 0.23719651 -1.1047671 2631719
0.5198893 0.24254879 -1.1019164 2631719
0.335866 0.24218239 -1.1047796 2631719
0.51989323 0.24752094 -1.1019249 2631719
0.33586988 0.24716839 -1.1047922 2631462
0.51989722 0.2524932 -1.1019332 2500133
0.33587366 0.2521545 -1.1048049 2565926
0.51990122 0.25746551 -1.1019417 2565925
0.33587751 0.25714073 -1.1048174 2631462
0.51990521 0.26243788 -1.1019502 2631718
0.33588138 0.26212707 -1.10483 2631463
0.51990843 0.26641583 -1.101957 2697512
0.3358852 0.26711351 -1.1048427 2697512
0.56563205 0.099110767 -1.1097497 4472633
0.56264257 0.099113211 -1.109777 3881269
0.55765969 0.099117272 -1.1098224 3289906
0.55267632 0.099121325 -1.1098678 3355442
0.5476926 0.099125378 -1.1099132 3355442
0.54270858 0.099129453 -1.1099589 3355442
0.53971791 0.099131882 -1.1099861 3355442
0.51980573 0.13768369 -1.1059687 2829612
0.14674717 0.13776274 -1.1066035 2894891
0.51980942 0.14267327 -1.1059766 2697769
0.14675112 0.142758 -1.1066333 2631976
0.51981318 0.14766291 -1.1059844 2631719
0.1467551 0.14775354 -1.1066633 2631719
0.51981717 0.15265268 -1.1059929 2631720
0.14675908 0.15274934 -1.1066933 2631719
0.51982117 0.15764254 -1.1060015 2697512
0.14676304 0.15774542 -1.1067232 2631719
0.5198251 0.16263247 -1.10601 2631719
0.14676701 0.16274177 -1.1067532 2565927
0.51982915 0.16762249 -1.1060185 2565927
0.14677098 0.16773838 -1.1067832 2565927
0.51983321 0.17261259 -1.106027 2500134
0.14677495 0.17273526 -1.106813 2565927
0.51983714 0.17760275 -1.1060355 2565927
0.14677893 0.17773242 -1.106843 2565927
0.51984113 0.182593 -1.1060439 2631719
0.14678289 0.18272984 -1.1068728 2631719
0.51984519 0.18758333 -1.1060526 2697512
0.14678687 0.18772753 -1.1069028 2631719
0.51984912 0.19257373 -1.106061 2697255
0.14679083 0.19272549 -1.1069328 2631720
0.51985312 0.1975642 -1.1060696 2697512
0.1467948 0.19772375 -1.1069627 2697512
0.51985723 0.20255476 -1.1060781 2565926
0.14679877 0.20272227 -1.1069927 2631719
0.51986122 0.2075454 -1.1060867 2565925
0.14680275 0.20772104 -1.1070226 2631719
0.51986516 0.2125361 -1.1060952 2565926
0.14680673 0.2127201 -1.1070526 2631719
0.51986921 0.21752688 -1.1061037 2500133
0.14681071 0.21771941 -1.1070826 2631719
0.5198732 0.22251774 -1.1061121 2631719
0.14681466 0.222719 -1.1071124 2631719
0.5198772 0.22750871 -1.1061208 2631975
0.14681864 0.22771886 -1.1071424 2631719
0.51988119 0.2324997 -1.1061292 2631719
0.1468226 0.23271899 -1.1071724 2631719
0.51988518 0.2374908 -1.1061378 2565926
0.1468266 0.23771939 -1.1072023 2631719
0.51988924 0.24248196 -1.1061463 2631462
0.14683056 0.24272007 -1.1072323 2631718
0.51989323 0.24747322 -1.1061548 2631718
0.14683452 0.24772099 -1.1072623 2565926
0.51989722 0.25246453 -1.1061631 2565669
0.1468385 0.25272217 -1.1072921 2565926
0.51990122 0.25745595 -1.1061718 2697255
0.14684241 0.25772357 -1.1073216 2565926
0.51990527 0.26244745 -1.1061803 2631719
0.14684631 0.26272517 -1.1073509 2565926
0.56559843 0.26833513 -1.1057695 3553077
0.51832104 0.26789057 -1.1059937 3026734
0.5128113 0.26837796 -1.1059461 3421491
0.50783056 0.26838201 -1.1059628 3421492
0.5028497 0.2683861 -1.1059796 3355955
0.49786842 0.26839006 -1.1059958 3289906
0.49288693 0.26839393 -1.1060119 3289906
0.48790532 0.26839787 -1.1060282 3355698
0.48292354 0.26840177 -1.1060442 3355699
0.47794166 0.26840571 -1.1060604 3355699
0.47295961 0.26840961 -1.1060765 3289906
0.46797743 0.26841354 -1.1060927 3224112
0.46199858 0.26841822 -1.106112 3224112
0.45701605 0.26842216 -1.1061282 3289649
0.4520334 0.26842606 -1.1061443 3289649
0.4470506 0.26842999 -1.1061604 3289649
0.44206765 0.26843393 -1.1061766 3289650
0.43708459 0.26843786 -1.1061928 3289650
0.43210131 0.26844177 -1.1062089 3289649
0.42711797 0.26844567 -1.1062251 3289649
0.42213443 0.26844963 -1.1062412 3223856
0.41715077 0.26845354 -1.1062574 3158064
0.41216689 0.26845744 -1.1062735 3158063
0.4071829 0.26846135 -1.1062896 3158063
0.40219879 0.26846528 -1.1063058 3158064
0.3972145 0.26846915 -1.1063219 3223856
0.39223009 0.26847312 -1.1063381 3223857
0.38724557 0.26847702 -1.1063542 3289649
0.38226086 0.26848096 -1.1063704 3355442
0.37727603 0.26848489 -1.1063867 3355442
0.37428504 0.26848719 -1.1063962 3355442
0.33240616 0.26852036 -1.1065329 3223856
0.32742003 0.26852444 -1.1065497 3223856
0.3224338 0.26852852 -1.1065664 3223856
0.31744733 0.26853257 -1.1065831 3223856
0.31246063 0.26853654 -1.1065995 3223856
0.30747372 0.26854044 -1.1066155 3289392
0.30248669 0.26854435 -1.1066318 3289649
0.29749951 0.26854828 -1.106648 3289649
0.29251215 0.26855218 -1.1066641 3355441
0.2875247 0.26855612 -1.1066803 3355441
0.28253704 0.26856005 -1.1066965 3289649
0.2775493 0.26856399 -1.1067126 3289648
0.27256137 0.26856792 -1.1067288 3289648
0.26757333 0.26857182 -1.106745 3289648
0.26258507 0.26857573 -1.106761 3289648
0.25759676 0.26857966 -1.1067772 3289392
0.25260824 0.26858357 -1.1067934 3223855
0.2476196 0.2685875 -1.1068095 3223855
0.24263082 0.26859143 -1.1068257 3223599
0.2376419 0.26859537 -1.1068419 3223599
0.23265281 0.26859927 -1.1068581 3223599
0.22766358 0.26860321 -1.1068742 3223856
0.22267421 0.26860711 -1.1068903 3223856
0.21768469 0.26861104 -1.1069065 3223856
0.21269502 0.26861498 -1.1069227 3223857
0.20770523 0.26861891 -1.106939 3289649
0.20271525 0.26862282 -1.1069551 3289649
0.19772515 0.26862675 -1.1069713 3289649
0.19273493 0.26863068 -1.1069875 3289649
0.18774453 0.26863459 -1.1070036 3289649
0.18475021 0.26863694 -1.1070132 3487284
0.1468347 0.26769871 -1.1072636 2763305
0.14282602 0.26867288 -1.1071614 3223856
0.13783348 0.26867557 -1.1071725 3289649
0.13383941 0.26867783 -1.1071817 3092270
0.13263516 0.27225128 -1.1054692 2631719
0.13263914 0.27724594 -1.1055025 2631976
0.13264313 0.2822409 -1.1055359 2697512
0.13264713 0.28723609 -1.1055691 2631976
0.13265114 0.29223165 -1.1056026 2631719
0.13265513 0.2972275 -1.1056358 2631719
0.13265814 0.30122393 -1.1056608 3550243
0.53672707 0.099134311 -1.1100132 3355442
0.5327391 0.09913756 -1.1100497 3355442
0.52775371 0.09914162 -1.110095 3355442
0.52276802 0.099145681 -1.1101406 3355442
0.51778185 0.099149741 -1.1101861 3355442
0.51279527 0.099153802 -1.1102314 3355698
0.50780833 0.099157862 -1.1102771 3355698
0.50282097 0.099161923 -1.1103225 3355698
0.49783313 0.099165976 -1.1103678 3355698
0.49284494 0.099170044 -1.1104133 3290162
0.48785633 0.099174105 -1.1104589 3289906
0.48286733 0.099178165 -1.1105043 3289906
0.47787789 0.099182226 -1.1105498 3289906
0.47288808 0.099186286 -1.1105952 3289905
0.4678978 0.099190354 -1.1106406 3289649
0.46290717 0.099194422 -1.1106863 3224113
0.45791608 0.099198483 -1.1107317 3223857
0.45292467 0.099202543 -1.1107774 3223857
0.44793278 0.099206619 -1.1108229 3223856
0.44294047 0.099210665 -1.1108682 3223856
0.43794775 0.09921474 -1.1109138 3158064
0.4329547 0.099218801 -1.1109593 3158064
0.42796117 0.099222869 -1.1110048 3158064
0.42296723 0.099226937 -1.1110504 3158320
0.41797292 0.099231005 -1.1110959 3223856
0.41297814 0.099235065 -1.1111414 3223856
0.40798301 0.099239141 -1.111187 3223856
0.40298742 0.099243194 -1.1112325 3223856
0.39799148 0.099247269 -1.1112781 3223856
0.39299509 0.09925133 -1.1113236 3223857
0.38799828 0.099255405 -1.1113691 3224113
0.38200164 0.099260293 -1.1114239 3289649
0.37700391 0.099264354 -1.1114694 3289649
0.37200582 0.099268436 -1.111515 3289649
0.36700734 0.099272504 -1.1115606 3289649
0.36200839 0.099276572 -1.1116061 3289649
0.35700908 0.09928064 -1.1116517 3289649
0.3520093 0.099284708 -1.1116972 3289649
0.34700918 0.099288784 -1.111743 3289649
0.34200859 0.099292852 -1.1117884 3289649
0.33700764 0.099296927 -1.111834 3289649
0.33200625 0.099301003 -1.1118797 3289649
0.32700449 0.099305078 -1.1119254 3289649
0.32200223 0.099309139 -1.1119708 3289649
0.31699964 0.099313207 -1.1120164 3289649
0.31299725 0.099316478 -1.1120529 3289649
0.30799392 0.099320553 -1.1120986 3289649
0.30299017 0.099324621 -1.1121442 3289649
0.297986 0.099328697 -1.1121899 3289649
0.29298142 0.099332765 -1.1122354 3289649
0.28797641 0.09933684 -1.1122811 3289649
0.28297099 0.099340916 -1.1123266 3289649
0.27796519 0.099344991 -1.1123723 3289649
0.27295896 0.099349074 -1.1124179 3289649
0.26795232 0.099353157 -1.1124636 3289649
0.26294526 0.099357225 -1.1125093 3289648
0.25793782 0.0993613 -1.1125549 3289648
0.25292996 0.099365383 -1.1126006 3223856
0.24792166 0.099369466 -1.1126462 3223856
0.24291296 0.099373534 -1.1126919 3223856
0.23790386 0.09937761 -1.1127375 3223855
0.23289438 0.0993817 -1.1127832 3223855
0.22788443 0.099385776 -1.1128289 3223599
0.22287409 0.099389851 -1.1128745 3223599
0.21786334 0.099393934 -1.1129203 3223855
0.21285219 0.099398009 -1.1129659 3223855
0.20784059 0.099402092 -1.1130117 3223855
0.20282863 0.099406168 -1.1130574 3223856
0.19781621 0.099410236 -1.1131029 3223856
0.19280328 0.099414252 -1.1131477 3223856
0.18778992 0.099418253 -1.1131927 3223856
0.18277617 0.099422261 -1.1132374 3224112
0.17776199 0.09942627 -1.1132823 3224112
0.17274742 0.09943027 -1.1133271 3289649
0.16773245 0.099434279 -1.113372 3289649
0.16271707 0.09943828 -1.1134169 3289649
0.15770127 0.099442281 -1.1134616 3289649
0.15268511 0.099446297 -1.1135066 3289649
0.1476685 0.099450298 -1.1135515 3289649
0.14265151 0.099454306 -1.1135962 3289649
0.1376341 0.099458307 -1.1136411 3289649
0.13361992 0.099461518 -1.113677 3092527
0.5198065 0.13848183 -1.1123798 2829612
0.33578578 0.13832372 -1.1111097 2829612
0.51980954 0.14249662 -1.1123862 2631976
0.335789 0.14233448 -1.1111205 2631976
0.51981324 0.14751516 -1.1123942 2500390
0.33579296 0.147348 -1.1111336 2565927
0.51981705 0.1525338 -1.1124022 2565927
0.33579695 0.15236165 -1.1111467 2565927
0.51982105 0.15755256 -1.1124109 2565927
0.3358008 0.15737535 -1.1111596 2631719
0.51982504 0.16257143 -1.1124194 2631719
0.3358047 0.16238919 -1.1111724 2631719
0.51982915 0.16759034 -1.1124281 2565927
0.33580852 0.1674031 -1.111185 2565926
0.51983309 0.17260937 -1.1124367 2500133
0.33581236 0.17241713 -1.1111977 2500134
0.5198372 0.17762846 -1.1124454 2565926
0.3358162 0.1774313 -1.1112106 2565926
0.51984119 0.18264763 -1.1124539 2565926
0.33582008 0.18244559 -1.1112232 2631719
0.51984477 0.18719208 -1.1120322 2631719
0.33582392 0.18745999 -1.111236 2631720
0.51984882 0.19215712 -1.1128997 2631719
0.33582777 0.19247448 -1.1112487 2697512
0.51985288 0.19722691 -1.1120493 2697512
0.33583164 0.1974891 -1.1112615 2697512
0.51985687 0.20219986 -1.1129169 2697512
0.33583549 0.20250383 -1.1112742 2697512
0.51986098 0.20726204 -1.1120666 2631719
0.33583933 0.2075187 -1.111287 2631719
0.51986492 0.21224292 -1.1129342 2565926
0.33584321 0.21253367 -1.1112998 2565926
0.51986891 0.21729751 -1.1120838 2500133
0.33584705 0.21754874 -1.1113125 2565926
0.51987302 0.22228627 -1.1129515 2565927
0.33585092 0.22256395 -1.1113253 2565927
0.51987702 0.22733328 -1.112101 2631719
0.33585477 0.22757925 -1.111338 2631975
0.51988101 0.23232993 -1.1129688 2631718
0.33585861 0.23259467 -1.1113508 2631719
0.51988506 0.23736934 -1.1121182 2566183
0.33586246 0.23761022 -1.1113635 2631719
0.51988906 0.24237394 -1.112986 2697256
0.3358663 0.24262586 -1.1113763 2631720
0.51989317 0.24740574 -1.1121355 2500133
0.33587018 0.24764164 -1.111389 2565669
0.51989716 0.25241822 -1.113003 2434596
0.33587402 0.25265753 -1.1114018 2565669
0.51990122 0.25744241 -1.1121528 2565925
0.33587784 0.25767353 -1.1114146 2565926
0.51990521 0.26246285 -1.1130205 2500133
0.33588174 0.26268965 -1.1114273 2565926
0.51878548 0.26742727 -1.1130613 2829099
0.51264453 0.26838458 -1.1142577 3289906
0.50762635 0.26838866 -1.1142746 3289906
0.50260806 0.26839274 -1.1142917 3289906
0.49758959 0.26839688 -1.1143088 3289906
0.49257082 0.26840091 -1.1143255 3289906
0.48755175 0.26840484 -1.1143419 3290162
0.48253253 0.26840878 -1.1143582 3290163
0.47751313 0.26841274 -1.1143746 3289906
0.47249368 0.2684167 -1.1143911 3224113
0.46747398 0.26842061 -1.1144074 3223856
0.4624542 0.26842457 -1.1144238 3223856
0.45743424 0.26842853 -1.1144401 3158064
0.45241413 0.26843244 -1.1144564 3158064
0.44739389 0.2684364 -1.1144729 3223857
0.44237351 0.26844037 -1.1144893 3223857
0.43735301 0.2684443 -1.1145058 3289649
0.43233231 0.26844823 -1.1145221 3289649
0.42731142 0.26845217 -1.1145383 3289649
0.42229047 0.26845616 -1.1145549 3223856
0.41726938 0.26846012 -1.1145712 3158063
0.41224805 0.26846403 -1.1145875 3158063
0.40722662 0.26846799 -1.1146041 3158063
0.40220505 0.26847193 -1.1146204 3223856
0.39718333 0.26847586 -1.1146369 3223856
0.39216146 0.26847982 -1.1146532 3223856
0.38713944 0.26848379 -1.1146697 3223856
0.38211724 0.26848769 -1.114686 3224113
0.37809947 0.26849091 -1.1146991 3289649
0.33588481 0.26670265 -1.1114376 2631719
0.33289224 0.26852646 -1.1148468 3158319
0.32786867 0.26853058 -1.1148639 3223856
0.32284498 0.26853466 -1.1148809 3158063
0.31782109 0.26853877 -1.114898 3158063
0.31279707 0.26854289 -1.114915 3158063
0.30777273 0.26854688 -1.1149316 3223856
0.30274823 0.26855084 -1.1149482 3289649
0.29772356 0.26855481 -1.1149645 3289649
0.29269874 0.26855874 -1.1149808 3289649
0.28867882 0.26856193 -1.114994 3289649
0.51980662 0.13827868 -1.1188556 3092783
0.33578545 0.138146 -1.117782 3026734
0.5198096 0.14231683 -1.118862 2697768
0.33578867 0.14218083 -1.1177927 2631976
0.51981342 0.14736462 -1.1188703 2500390
0.33579269 0.14722446 -1.1178062 2500390
0.51981717 0.15241244 -1.1188784 2434341
0.33579671 0.15226822 -1.1178194 2500134
0.51982093 0.15746036 -1.1188865 2565927
0.33580068 0.15731208 -1.1178328 2565927
0.51982504 0.16250844 -1.1188952 2565926
0.33580458 0.16235602 -1.1178457 2631719
0.51982903 0.16755658 -1.1189039 2565926
0.33580849 0.16740006 -1.1178586 2565927
0.51983315 0.17260481 -1.1189126 2500134
0.33581233 0.17244422 -1.1178715 2500134
0.51983714 0.17765313 -1.1189213 2566182
0.33581623 0.17748851 -1.1178844 2565926
0.51984113 0.18270151 -1.11893 2566182
0.33582008 0.18253289 -1.1178974 2565926
0.51984525 0.18774998 -1.1189387 2697512
0.33582395 0.1875774 -1.1179101 2631719
0.5198493 0.19279854 -1.1189475 2697512
0.33582783 0.19262202 -1.1179231 2697512
0.51985335 0.19784716 -1.1189562 2631719
0.33583173 0.19766678 -1.1179361 2697255
0.51985747 0.20289584 -1.1189648 2697255
0.33583561 0.20271163 -1.117949 2697512
0.51986146 0.20794463 -1.1189737 2565926
0.33583945 0.20775659 -1.1179619 2631719
0.51986468 0.21198371 -1.1189806 2565926
0.33584335 0.21280169 -1.1179748 2565926
0.51986873 0.21703263 -1.1189893 2565926
0.33584723 0.2178469 -1.1179876 2565926
0.51987278 0.22208163 -1.1189981 2565927
0.3358511 0.22289222 -1.1180005 2631719
0.51987684 0.22713073 -1.1190068 2631719
0.33585498 0.22793767 -1.1180135 2631719
0.51988089 0.23217987 -1.1190155 2631719
0.33585808 0.23197412 -1.1180239 2631719
0.51988494 0.23722911 -1.1190242 2631719
0.33586195 0.23701973 -1.1180366 2631719
0.519889 0.24227843 -1.1190329 2697512
0.33586583 0.24206552 -1.1180496 2697512
0.51989305 0.2473278 -1.1190416 2565926
0.3358697 0.2471114 -1.1180625 2565926
0.5198971 0.2523773 -1.1190504 2434340
0.33587357 0.25215739 -1.1180754 2500133
0.51990116 0.25742686 -1.1190591 2500133
0.33587745 0.25720355 -1.1180882 2500133
0.51990521 0.26247647 -1.1190678 2500133
0.33588132 0.26224974 -1.1181011 2565925
0.51990843 0.26651624 -1.1190748 2631462
0.33588442 0.26628685 -1.1181116 2500133
0.28666878 0.26856348 -1.1150005 3289649
0.28264868 0.26856664 -1.1150136 3289649
0.27762344 0.2685706 -1.1150301 3289649
0.27259803 0.26857457 -1.1150464 3289649
0.26757249 0.26857853 -1.115063 3355441
0.26254681 0.26858246 -1.1150793 3355442
0.25752094 0.2685864 -1.1150956 3289649
0.25249496 0.26859036 -1.1151122 3223855
0.24746878 0.26859432 -1.1151285 3158062
0.2424425 0.26859829 -1.115145 3158062
0.23741609 0.26860219 -1.1151614 3158062
0.23238951 0.26860616 -1.1151778 3158062
0.22736277 0.26861012 -1.1151941 3158063
0.2223359 0.26861408 -1.1152107 3158063
0.21730886 0.26861802 -1.115227 3223599
0.21228166 0.26862195 -1.1152433 3223599
0.20725435 0.26862592 -1.1152598 3223599
0.20222689 0.26862988 -1.1152762 3158063
0.19719927 0.26863384 -1.1152927 3158063
0.19217151 0.26863778 -1.115309 3158063
0.18714358 0.26864177 -1.1153255 3289649
0.14591107 0.2686778 -1.1154752 3223856
0.14289306 0.26867941 -1.1154819 3223856
0.13786301 0.26868212 -1.1154931 3223856
0.13383894 0.26868439 -1.1155025 3289649
0.13249774 0.10215485 -1.121184 2631719
0.1325018 0.10721529 -1.1212184 2631719
0.13250586 0.11227605 -1.1212527 2631976
0.1325099 0.11733712 -1.1212869 2697512
0.13251396 0.1223985 -1.1213212 2631976
0.13251795 0.12746012 -1.1213551 2631976
0.13252087 0.13150936 -1.1213797 2631975
0.5198071 0.13881791 -1.1232187 3026734
0.33578593 0.13898091 -1.1245376 2895148
0.1467479 0.13865156 -1.1218727 3092527
0.51981014 0.14287183 -1.1232252 2631976
0.33578834 0.14202532 -1.1245457 2566184
0.14675112 0.14270294 -1.1218972 2566183
0.51981401 0.14793929 -1.1232336 2434597
0.33579236 0.14709944 -1.1245593 2500390
0.14675516 0.14776736 -1.1219282 2500391
0.51981699 0.1519933 -1.12324 2302755
0.33579645 0.15217365 -1.1245728 2368548
0.14675917 0.15283209 -1.1219589 2500134
0.51982075 0.15706091 -1.1232482 2434341
0.33580047 0.15724801 -1.1245862 2368548
0.14676321 0.15789708 -1.1219897 2500134
0.51982462 0.1621286 -1.1232567 2500133
0.33580449 0.16232246 -1.1245998 2500133
0.14676721 0.16296235 -1.1220204 2500134
0.51982874 0.16719641 -1.1232654 2500134
0.33580843 0.16739698 -1.1246129 2500134
0.14677125 0.16802791 -1.1220512 2565926
0.51983273 0.17226431 -1.1232741 2500133
0.3358123 0.17247161 -1.1246259 2500133
0.14677446 0.17208053 -1.1220758 2565926
0.51983684 0.1773323 -1.1232829 2500389
0.3358162 0.17754638 -1.124639 2500133
0.14677849 0.1771466 -1.1221066 2565926
0.5198409 0.18240036 -1.1232917 2631719
0.33582011 0.18262124 -1.124652 2565927
0.1467825 0.18221292 -1.1221373 2565927
0.51984501 0.18746851 -1.1233006 2631720
0.33582401 0.18769626 -1.1246651 2631719
0.14678654 0.18727952 -1.1221681 2631719
0.51984906 0.19253673 -1.1233094 2763305
0.33582789 0.19277135 -1.1246781 2763304
0.14679055 0.19234639 -1.1221988 2697512
0.51985312 0.19760506 -1.1233181 2697511
0.33583179 0.19784658 -1.1246911 2697512
0.1467946 0.19741356 -1.1222297 2697512
0.51985717 0.20267341 -1.1233269 2697512
0.3358357 0.20292193 -1.1247044 2631719
0.14679861 0.202481 -1.1222603 2631976
0.51986128 0.2077419 -1.1233357 2631719
0.33583882 0.20698228 -1.1247147 2631719
0.14680265 0.20754874 -1.1222912 2631719
0.51986527 0.21281041 -1.1233444 2697512
0.33584276 0.21205784 -1.1247278 2631719
0.14680667 0.21261671 -1.122322 2631719
0.51986945 0.21787904 -1.1233534 2631720
0.33584663 0.21713352 -1.1247408 2697512
0.14681071 0.217685 -1.1223527 2631720
0.51987344 0.22294773 -1.1233621 2565927
0.33585051 0.22220929 -1.124754 2631720
0.14681472 0.22275352 -1.1223836 2631720
0.51987672 0.22700274 -1.1233691 2565927
0.33585441 0.22728522 -1.1247669 2631720
0.14681876 0.22782238 -1.1224142 2631720
0.51988071 0.23207159 -1.1233779 2631975
0.33585829 0.23236126 -1.1247799 2697512
0.14682278 0.23289149 -1.1224451 2631976
0.51988482 0.23714052 -1.1233866 2631975
0.33586219 0.2374374 -1.1247931 2697512
0.14682682 0.23796088 -1.122476 2631719
0.51988888 0.24220951 -1.1233954 2631719
0.33586612 0.24251367 -1.1248062 2631719
0.14683081 0.2430305 -1.1225066 2631719
0.51989293 0.24727859 -1.1234043 2565926
0.33587 0.24759005 -1.1248193 2565926
0.146834 0.24708635 -1.1225309 2565926
0.51989704 0.25234774 -1.1234131 2434340
0.3358739 0.25266656 -1.1248323 2434596
0.14683795 0.25215638 -1.1225611 2500133
0.5199011 0.25741696 -1.1234218 2500134
0.33587781 0.25774318 -1.1248453 2500133
0.1468419 0.25722668 -1.1225913 2500133
0.51990515 0.26248631 -1.1234306 2434340
0.33588171 0.26281989 -1.1248584 2434340
0.14684585 0.26229727 -1.1226215 2500133
0.51812559 0.2679258 -1.1228679 3026477
0.51247537 0.26839131 -1.1226953 3289906
0.50741917 0.26839542 -1.1227126 3289906
0.50236285 0.26839954 -1.1227299 3224113
0.49730635 0.26840368 -1.1227472 3224113
0.49224973 0.26840782 -1.1227645 3224112
0.48719281 0.26841187 -1.1227815 3224113
0.48213559 0.26841587 -1.1227982 3224113
0.47707823 0.26841986 -1.1228148 3158577
0.47202066 0.2684238 -1.1228313 3158577
0.46797451 0.26842701 -1.1228447 3158320
0.46291673 0.26843098 -1.1228614 3092527
0.45785883 0.26843497 -1.1228781 3026734
0.45280069 0.26843897 -1.1228946 2960941
0.44774243 0.26844293 -1.1229113 3026478
0.44268405 0.26844689 -1.1229279 3026478
0.43762547 0.26845086 -1.1229446 3092271
0.43256676 0.26845485 -1.1229612 3158063
0.42750794 0.26845884 -1.1229779 3158064
0.42244893 0.26846281 -1.1229944 3158064
0.41738978 0.26846677 -1.1230111 3158063
0.41233045 0.26847076 -1.1230278 3092270
0.407271 0.26847473 -1.1230444 3092527
0.40221143 0.26847872 -1.1230611 3158063
0.39715168 0.26848271 -1.1230778 3158063
0.39209175 0.26848665 -1.1230943 3158320
0.3870317 0.26849061 -1.1231109 3223856
0.38298357 0.26849383 -1.1231244 3224113
0.37994739 0.26849622 -1.1231343 3289649
0.33564758 0.26770619 -1.1240742 2763305
0.33237341 0.26853347 -1.1232901 3289649
0.32731175 0.26853761 -1.1233073 3289649
0.32224998 0.26854172 -1.1233246 3289649
0.31718805 0.26854587 -1.1233419 3289650
0.31212595 0.26855004 -1.1233593 3289650
0.3070637 0.26855415 -1.1233766 3289650
0.30200121 0.2685582 -1.1233935 3355442
0.29795104 0.26856139 -1.1234069 3355442
0.29288816 0.26856539 -1.1234236 3289906
0.2878252 0.26856938 -1.1234403 3289906
0.28276205 0.26857337 -1.123457 3355442
0.27769873 0.26857731 -1.1234734 3355442
0.27263525 0.2685813 -1.1234902 3355441
0.26757166 0.26858529 -1.1235068 3355441
0.26250792 0.26858929 -1.1235235 3289649
0.25744399 0.26859325 -1.1235402 3289648
0.25237995 0.26859725 -1.1235567 3223855
0.24731572 0.26860124 -1.1235735 3158063
0.24225137 0.2686052 -1.1235901 3092270
0.23718686 0.26860917 -1.1236068 3092269
0.23212221 0.26861319 -1.1236235 3092269
0.2270574 0.26861715 -1.1236401 3092269
0.22300546 0.26862031 -1.1236534 3092270
0.21794035 0.26862431 -1.1236701 3092270
0.21287516 0.2686283 -1.1236868 3092270
0.20780976 0.26863229 -1.1237035 3157806
0.20274423 0.26863626 -1.12372 3092270
0.19767857 0.26864025 -1.1237367 3092270
0.19261275 0.26864424 -1.1237534 3092270
0.18855996 0.26864743 -1.1237667 3224112
0.1468498 0.26736811 -1.1226517 2697512
0.14296114 0.26868603 -1.1239282 3224112
0.13789298 0.26868874 -1.1239396 3223856
0.13383849 0.26869112 -1.1239495 3026477
0.13263538 0.27235839 -1.1223488 2500133
0.13263945 0.27742931 -1.1223831 2500390
0.13264352 0.28250054 -1.1224174 2565926
0.13264756 0.28757206 -1.1224518 2565926
0.13265163 0.2926439 -1.1224861 2566183
0.13265553 0.29771569 -1.1225193 2631719
0.13265772 0.30075857 -1.1225377 2631719
0.51980758 0.13936137 -1.1276159 2895148
0.51980996 0.14241371 -1.1276209 2566440
0.51981372 0.14750101 -1.1276293 2500133
0.51981759 0.15258837 -1.1276376 2302755
0.51982135 0.15767579 -1.1276459 2302755
0.51982522 0.16276331 -1.1276541 2500134
0.51982927 0.16785097 -1.1276629 2500133
0.51983333 0.1729387 -1.1276717 2434597
0.51983654 0.17700899 -1.1276789 2434597
0.51984066 0.18209688 -1.1276877 2565926
0.51984477 0.18718484 -1.1276965 2500134
0.51984882 0.1922729 -1.1277053 2697512
0.51985288 0.19736104 -1.1277142 2631975
0.51985705 0.20244926 -1.1277231 2631719
0.5198611 0.20753753 -1.1277319 2631720
0.51986516 0.21262592 -1.1277407 2631719
0.51986927 0.21771438 -1.1277497 2697513
0.51987332 0.22280289 -1.1277585 2697512
0.51987743 0.22789153 -1.1277673 2697513
0.51988071 0.23196247 -1.1277745 2697512
0.51988477 0.23705123 -1.1277833 2631719
0.51988888 0.24214007 -1.1277921 2631719
0.51989293 0.24722899 -1.1278011 2566182
0.51989698 0.25231797 -1.1278098 2368547
0.5199011 0.25740707 -1.1278187 2368547
0.51990521 0.26249623 -1.1278276 2434596
0.51990843 0.26656759 -1.1278346 2565926
0.56615692 0.099128582 -1.1328347 5063995
0.56208795 0.099131897 -1.1328726 3815476
0.55801868 0.099135213 -1.1329105 3224112
0.55293173 0.099139355 -1.1329578 3224112
0.54784435 0.09914349 -1.1330051 3224113
0.5427565 0.09914764 -1.1330525 3224113
0.53766835 0.099151775 -1.1330998 3224113
0.5325796 0.099155925 -1.1331471 3224113
0.52749056 0.099160075 -1.1331944 3224113
0.52240103 0.09916421 -1.1332418 3224113
0.5173111 0.09916836 -1.1332892 3224113
0.51222074 0.099172495 -1.1333365 3224113
0.50712997 0.099176653 -1.133384 3224113
0.50203878 0.099180795 -1.1334314 3224113
0.49694714 0.099184945 -1.1334788 3224113
0.49287352 0.099188261 -1.1335167 3224113
0.48778111 0.099192411 -1.1335641 3224113
0.48268828 0.099196553 -1.1336114 3224113
0.477595 0.099200703 -1.1336589 3224113
0.47250137 0.099204853 -1.1337063 3224113
0.46740723 0.099209003 -1.1337537 3158320
0.4623127 0.099213138 -1.133801 3158320
0.45721772 0.099217296 -1.1338483 3158320
0.45212236 0.099221453 -1.1338959 3158064
0.44804576 0.099224761 -1.1339338 3158063
0.44294956 0.099228911 -1.1339812 3158063
0.43785301 0.099233061 -1.1340287 3158063
0.43275601 0.099237226 -1.1340761 3158063
0.42765859 0.099241361 -1.1341236 3158063
0.42256069 0.099245518 -1.134171 3158063
0.41746244 0.099249668 -1.1342185 3158064
0.41236371 0.099253826 -1.1342659 3158064
0.40726456 0.099257976 -1.1343133 3223856
0.402165 0.099262118 -1.1343608 3223856
0.39706501 0.099266283 -1.1344082 3223856
0.39298472 0.099269606 -1.1344463 3223856
0.38788396 0.099273764 -1.1344937 3223856
0.38278279 0.099277906 -1.1345412 3289649
0.37768117 0.099282064 -1.1345887 3289649
0.37257913 0.099286221 -1.1346362 3289649
0.36747661 0.099290371 -1.1346836 3289649
0.36237377 0.099294536 -1.1347312 3289649
0.35727042 0.099298693 -1.1347786 3289649
0.35216668 0.099302843 -1.1348262 3289649
0.3470625 0.099307001 -1.1348737 3289649
0.3419579 0.099311158 -1.1349211 3289649
0.33787391 0.099314481 -1.1349591 3289649
0.33481076 0.099316984 -1.1349877 3289649
0.51980823 0.13990912 -1.132048 2960684
0.3357864 0.13982598 -1.1313753 2829355
0.5198105 0.14297345 -1.1320529 2697512
0.33578888 0.14288892 -1.1313837 2566183
0.51981354 0.14705926 -1.1320596 2566183
0.33579212 0.14697288 -1.1313946 2565927
0.51981741 0.15216662 -1.1320679 2434340
0.33579618 0.15207794 -1.1314082 2434340
0.51982129 0.15727404 -1.1320763 2368805
0.33580026 0.15718314 -1.1314219 2434341
0.51982504 0.16238153 -1.1320846 2500133
0.33580428 0.16228844 -1.1314356 2500133
0.51982892 0.16748913 -1.1320932 2500133
0.33580834 0.16739386 -1.1314492 2500134
0.51983303 0.17259687 -1.132102 2500134
0.33581227 0.17249937 -1.1314625 2500134
0.51983714 0.17770469 -1.132111 2565927
0.3358162 0.17760497 -1.1314757 2565926
0.51984125 0.18281259 -1.1321199 2500390
0.33582008 0.18271069 -1.1314888 2565926
0.51984537 0.18792056 -1.1321287 2500134
0.33582401 0.18781652 -1.131502 2565926
0.51984859 0.19200699 -1.1321359 2565927
0.33582795 0.19292249 -1.1315153 2631720
0.5198527 0.19711511 -1.1321448 2697513
0.33583185 0.19802856 -1.1315285 2697512
0.51985681 0.20222333 -1.1321537 2631719
0.33583501 0.20211354 -1.1315391 2631719
0.51986086 0.20733161 -1.1321627 2565927
0.33583894 0.20721982 -1.1315522 2631719
0.51986504 0.21243998 -1.1321716 2565926
0.33584288 0.21232626 -1.1315656 2631719
0.51986909 0.21754842 -1.1321806 2697769
0.33584681 0.2174328 -1.1315788 2697512
0.51987314 0.22265694 -1.1321895 2763305
0.33585072 0.22253945 -1.131592 2763305
0.51987731 0.22776556 -1.1321985 2631720
0.33585465 0.22764622 -1.1316051 2697512
0.51988137 0.23287423 -1.1322074 2631719
0.33585855 0.2327531 -1.1316184 2697512
0.51988465 0.23696123 -1.1322144 2697512
0.33586246 0.23786013 -1.1316316 2631719
0.51988876 0.24207008 -1.1322235 2631719
0.33586636 0.24296723 -1.1316447 2631719
0.51989287 0.24717897 -1.1322323 2566183
0.33586952 0.24705303 -1.1316555 2565926
0.51989692 0.25228798 -1.1322412 2434339
0.33587343 0.25216037 -1.1316686 2434340
0.51990104 0.25739706 -1.1322502 2368803
0.33587739 0.25726783 -1.1316819 2434340
0.51990515 0.26250622 -1.132259 2500389
0.33588129 0.26237544 -1.1316952 2500133
0.51802564 0.26794386 -1.1314996 2960941
0.51230347 0.26839811 -1.1312616 3289649
0.50720876 0.26840228 -1.1312791 3289906
0.50211382 0.26840645 -1.1312968 3289649
0.49803779 0.26840976 -1.1313107 3224113
0.4929426 0.26841393 -1.1313283 3224112
0.48784724 0.2684181 -1.131346 3158320
0.48275167 0.26842225 -1.1313634 3158320
0.4776558 0.26842627 -1.1313803 3158320
0.47255969 0.26843026 -1.1313972 3223856
0.46746346 0.26843432 -1.1314142 3224113
0.462367 0.26843831 -1.1314311 3158064
0.45727047 0.2684423 -1.131448 3092270
0.45217374 0.2684463 -1.1314648 3026734
0.44707686 0.26845032 -1.1314816 3026734
0.44299927 0.26845354 -1.1314952 3092270
0.43790212 0.26845753 -1.1315122 3092270
0.43280485 0.26846156 -1.1315291 3092271
0.42770737 0.26846555 -1.1315459 3092527
0.42260978 0.26846957 -1.1315628 3158063
0.41751206 0.26847357 -1.1315798 3158063
0.41241413 0.26847759 -1.1315966 3158063
0.40731609 0.26848158 -1.1316136 3158064
0.40221789 0.26848561 -1.1316304 3223856
0.39711952 0.2684896 -1.1316473 3223856
0.39202103 0.26849365 -1.1316643 3223856
0.38794205 0.26849681 -1.1316776 3223856
0.38386306 0.26850003 -1.1316912 3223856
0.33588526 0.26748314 -1.1317084 2697512
0.33286664 0.26853976 -1.1318586 3289649
0.32776642 0.26854393 -1.1318761 3289649
0.32266605 0.26854807 -1.1318939 3289906
0.31756547 0.26855224 -1.1319114 3355442
0.3124648 0.26855642 -1.1319289 3421235
0.30736393 0.26856059 -1.1319466 3421235
0.30226293 0.26856476 -1.1319642 3421235
0.2971617 0.26856887 -1.1319815 3421235
0.2920602 0.26857293 -1.1319985 3355442
0.28797886 0.26857615 -1.132012 3355442
0.28287709 0.26858011 -1.1320289 3355442
0.27777514 0.26858413 -1.1320457 3355442
0.27267307 0.26858819 -1.1320628 3289905
0.26757082 0.26859218 -1.1320796 3289649
0.2624684 0.2685962 -1.1320966 3289649
0.25736585 0.2686002 -1.1321135 3223856
0.25226316 0.26860422 -1.1321305 3223856
0.24716032 0.26860821 -1.1321473 3158319
0.24205729 0.26861224 -1.1321642 3092270
0.23695417 0.26861626 -1.1321812 3026733
0.23287152 0.26861948 -1.1321946 3026477
0.22776808 0.26862347 -1.1322116 3092269
0.22266451 0.26862746 -1.1322285 3092270
0.21756077 0.26863152 -1.1322454 3158063
0.21245687 0.26863551 -1.1322622 3158063
0.20735283 0.26863953 -1.1322793 3158063
0.20224865 0.26864353 -1.1322961 3223599
0.19714428 0.26864758 -1.1323131 3223855
0.1920398 0.26865157 -1.1323299 3223856
0.18897703 0.26865399 -1.1323402 3421491
0.14609429 0.26869109 -1.1324966 3289649
0.14303024 0.26869273 -1.1325035 3223856
0.13792345 0.2686955 -1.1325151 3223856
0.13383803 0.26869792 -1.1325253 3224112
0.33174741 0.099319473 -1.1350162 3289649
0.32766274 0.099322796 -1.1350541 3289649
0.3225565 0.099326961 -1.1351017 3289649
0.31744984 0.099331111 -1.1351492 3355442
0.31234276 0.099335276 -1.1351967 3355442
0.30723527 0.09933944 -1.1352444 3355442
0.3021273 0.09934359 -1.1352917 3355442
0.29701898 0.099347755 -1.1353393 3355442
0.29293194 0.099351078 -1.1353774 3355442
0.28782278 0.099355243 -1.135425 3355442
0.28271323 0.099359401 -1.1354724 3289906
0.27760327 0.099363565 -1.13552 3289905
0.27249286 0.09936773 -1.1355677 3289649
0.267382 0.099371888 -1.1356151 3289649
0.26227072 0.099376053 -1.1356628 3289649
0.25715899 0.099380217 -1.1357102 3224112
0.25204688 0.099384382 -1.1357579 3223856
0.24795683 0.099387705 -1.1357958 3223856
0.24284378 0.099391818 -1.1358428 3223856
0.23773028 0.099395901 -1.1358895 3158319
0.23261632 0.099399984 -1.1359363 3158063
0.22750197 0.099404067 -1.1359829 3158063
0.22238716 0.09940815 -1.1360296 3158063
0.217272 0.09941224 -1.1360762 3158063
0.21215636 0.099416323 -1.1361231 3158063
0.20704032 0.099420406 -1.1361697 3158063
0.20294718 0.099423677 -1.1362071 3158063
0.19783038 0.099427767 -1.1362537 3158063
0.19271319 0.099431857 -1.1363004 3158063
0.18759552 0.099435948 -1.1363472 3158063
0.18247746 0.099440023 -1.1363938 3158063
0.17735896 0.099444114 -1.1364406 3158063
0.17224006 0.099448204 -1.1364872 3158063
0.16712075 0.099452294 -1.1365341 3158319
0.162001 0.099456385 -1.1365807 3158319
0.15790491 0.099459663 -1.1366181 3223856
0.15278438 0.099463739 -1.1366649 3223856
0.14766349 0.099467836 -1.1367116 3223856
0.14254212 0.099471927 -1.1367583 3223856
0.13742034 0.099476002 -1.1368051 3223856
0.13342132 0.099553488 -1.1376905 3026477
0.13249801 0.10271172 -1.1385691 2566183
0.13250214 0.10785068 -1.1386045 2566183
0.13250627 0.11298992 -1.1386399 2566182
0.13250954 0.11710155 -1.1386681 2566182
0.13251366 0.12224139 -1.1387035 2566183
0.1325175 0.12738127 -1.1387365 2566183
0.13252045 0.13149327 -1.1387619 2631975
0.51981032 0.14251213 -1.1365181 2631976
0.33578855 0.14273585 -1.1383023 2697512
0.14675112 0.14264631 -1.1375883 2697769
0.51981413 0.14763954 -1.1365266 2565927
0.33579263 0.14787203 -1.1383162 2566183
0.1467552 0.14778158 -1.1376199 2565926
0.51981801 0.15276706 -1.1365349 2500134
0.33579591 0.15198106 -1.1383272 2500390
0.14675929 0.15291715 -1.1376514 2500134
0.51982176 0.15789463 -1.1365433 2565926
0.33579999 0.15711747 -1.1383411 2500390
0.14676337 0.15805298 -1.1376832 2500134
0.51982486 0.16199675 -1.1365501 2500133
0.33580408 0.16225401 -1.138355 2500133
0.14676663 0.16216186 -1.1377084 2500134
0.51982874 0.16712447 -1.1365585 2500134
0.33580819 0.16739066 -1.1383688 2500133
0.14677072 0.16729821 -1.1377401 2500390
0.51983273 0.17225231 -1.1365674 2565927
0.33581221 0.17252743 -1.1383826 2565926
0.1467748 0.17243487 -1.1377717 2565926
0.51983684 0.17738028 -1.1365763 2631719
0.33581614 0.17766424 -1.1383959 2565927
0.14677888 0.17757177 -1.1378033 2565926
0.51984096 0.18250832 -1.1365852 2565926
0.33582011 0.18280122 -1.1384094 2631719
0.14678296 0.18270901 -1.137835 2631719
0.51984513 0.18763645 -1.1365943 2697512
0.33582407 0.18793829 -1.1384226 2631719
0.14678705 0.1878465 -1.1378666 2631719
0.51984918 0.19276464 -1.1366032 2631719
0.33582801 0.19307548 -1.1384361 2631720
0.14679113 0.19298428 -1.1378983 2631719
0.51985329 0.19789295 -1.1366123 2565927
0.33583117 0.19718534 -1.1384468 2631719
0.14679439 0.19709471 -1.1379236 2631719
0.51985747 0.2030213 -1.1366212 2631719
0.3358351 0.20232272 -1.1384602 2566183
0.14679846 0.20223303 -1.1379553 2631719
0.51986068 0.20712404 -1.1366284 2631719
0.33583906 0.20746028 -1.1384735 2565927
0.14680256 0.20737159 -1.1379869 2565927
0.5198648 0.21225256 -1.1366373 2631719
0.335843 0.21259792 -1.1384869 2631719
0.14680666 0.21251048 -1.1380186 2631719
0.51986897 0.21738115 -1.1366465 2697512
0.33584693 0.21773569 -1.1385002 2763305
0.14681073 0.21764962 -1.1380502 2697512
0.51987302 0.22250982 -1.1366554 2763306
0.33585089 0.22287358 -1.1385137 2763305
0.14681479 0.22278906 -1.1380818 2697769
0.5198772 0.22763857 -1.1366644 2763305
0.33585483 0.22801161 -1.138527 2697512
0.14681889 0.22792879 -1.1381135 2697512
0.51988131 0.23276742 -1.1366735 2697512
0.33585802 0.23212212 -1.1385379 2697512
0.14682214 0.23204076 -1.1381388 2697512
0.51988542 0.23789632 -1.1366824 2631719
0.33586195 0.23726034 -1.1385511 2631719
0.14682615 0.2371809 -1.1381698 2631719
0.5198887 0.24199954 -1.1366897 2565926
0.33586589 0.24239871 -1.1385646 2631719
0.14683017 0.2423213 -1.138201 2631719
0.51989281 0.24712861 -1.1366986 2565927
0.33586982 0.24753718 -1.1385779 2565926
0.14683418 0.24746199 -1.1382321 2565926
0.51989686 0.2522577 -1.1367075 2500133
0.33587381 0.25267577 -1.1385913 2500133
0.14683819 0.25260293 -1.1382631 2565926
0.51990104 0.25738695 -1.1367166 2500133
0.33587778 0.2578145 -1.1386046 2500133
0.1468422 0.25774419 -1.1382942 2500133
0.51990521 0.26251629 -1.1367257 2500134
0.33588168 0.26295334 -1.138618 2565926
0.1468462 0.26288569 -1.1383252 2500390
0.51832104 0.26768842 -1.1386583 2895147
0.51212901 0.26840502 -1.1399598 3224113
0.50802183 0.26840839 -1.139974 3289905
0.50288779 0.26841259 -1.1399918 3224369
0.33588484 0.26706448 -1.1386287 2631719
0.14684941 0.26699913 -1.1383501 2697512
0.13263565 0.27246884 -1.1397518 2565926
0.13263978 0.27761835 -1.1397872 2565926
0.13264389 0.28276822 -1.1398226 2500389
0.13264801 0.28791839 -1.139858 2565926
0.13265131 0.2920388 -1.1398864 2565926
0.1326551 0.29718879 -1.1399188 2565927
0.13265806 0.30130884 -1.1399443 3550243
0.51981008 0.14204714 -1.1410189 2697770
0.51981395 0.14719486 -1.1410272 2566183
0.51981783 0.15234269 -1.1410358 2565927
0.51982164 0.15749055 -1.1410441 2434597
0.51982558 0.16263853 -1.1410527 2434341
0.51982933 0.16778655 -1.1410611 2565927
0.51983321 0.17293467 -1.1410697 2565926
0.5198366 0.1770533 -1.141077 2565926
0.51984072 0.18220164 -1.141086 2631719
0.51984483 0.18735006 -1.1410952 2763305
0.51984894 0.19249858 -1.1411042 2697513
0.51985312 0.19764715 -1.1411132 2631720
0.51985729 0.20279585 -1.1411222 2565926
0.51986134 0.2079446 -1.1411314 2565926
0.51986468 0.21206364 -1.1411386 2631719
0.51986879 0.21721256 -1.1411477 2763305
0.5198729 0.22236153 -1.1411567 2697513
0.51987702 0.22751062 -1.1411659 2697512
0.51988125 0.23265976 -1.1411749 2829098
0.5198853 0.23780899 -1.141184 2631719
0.51988947 0.24295829 -1.1411929 2566182
0.51989281 0.24707781 -1.1412003 2565926
0.51989686 0.25222728 -1.1412092 2565926
0.51990104 0.25737682 -1.1412184 2500133
0.51990515 0.26252642 -1.1412275 2500133
0.51990843 0.26664615 -1.1412346 2565926
0.49775365 0.26841676 -1.1400096 3224369
0.49261928 0.26842096 -1.1400275 3224113
0.48748469 0.26842517 -1.1400453 3224112
0.48234999 0.26842937 -1.1400632 3158320
0.47721514 0.26843357 -1.1400809 3223856
0.4720799 0.26843765 -1.1400982 3224112
0.46694449 0.26844171 -1.1401155 3289649
0.462836 0.26844493 -1.1401292 3224113
0.45770025 0.26844898 -1.1401464 3158320
0.45256433 0.268453 -1.1401634 3092527
0.44742829 0.26845703 -1.1401807 3092527
0.44229212 0.26846108 -1.1401978 3092527
0.43715575 0.26846513 -1.140215 3092527
0.43201923 0.26846915 -1.1402321 3158063
0.42790994 0.2684724 -1.1402459 3158063
0.42277312 0.26847643 -1.140263 3158063
0.41763619 0.26848045 -1.14028 3158063
0.4124991 0.2684845 -1.1402973 3158063
0.40736184 0.26848853 -1.1403143 3158064
0.40222445 0.26849261 -1.1403316 3158064
0.39708683 0.26849663 -1.1403487 3158064
0.39297673 0.26849985 -1.1403625 3223856
0.38783887 0.2685039 -1.1403797 3289392
0.33233964 0.26854694 -1.1405625 3223856
0.32720017 0.26855117 -1.1405804 3223856
0.32206056 0.26855537 -1.1405983 3289649
