# .PCD v0.7 - Point Cloud Data file format
VERSION 0.7
FIELDS x y z rgb
SIZE 4 4 4 4
TYPE F F F U
COUNT 1 1 1 1
WIDTH 340
HEIGHT 1
VIEWPOINT 0 0 0 1 0 0 0
POINTS 340
DATA ascii
0.0071216538 -0.012599716 -1.214498 9240833
0.0021903173 -0.013142621 -1.2140234 9371905
-0.0021905296 -0.013142622 -1.2140234 9371905
-0.0071218652 -0.012599715 -1.2144979 9371905
0.012597788 -0.007121013 -1.2143319 9044225
0.0076608756 -0.0076611359 -1.2130923 9175297
0.0021872211 -0.007656164 -1.2123083 9240833
-0.0021874334 -0.0076561668 -1.2123088 9306369
-0.007661086 -0.007661134 -1.2130923 9306369
-0.012597997 -0.0071210107 -1.2143315 9240833
0.013139494 -0.0021899724 -1.213748 8913153
0.007655194 -0.0021871708 -1.2121953 9044225
0.002185642 -0.0021857976 -1.2114342 9109761
-0.0021858539 -0.0021857973 -1.2114341 9175297
-0.0076554064 -0.0021871708 -1.2121953 9175297
-0.013139713 -0.0021899736 -1.2137487 9109761
0.016439112 0.0010959479 -1.2148685 8716545
0.013137397 0.0021896216 -1.2135544 8782081
0.0076539684 0.002186819 -1.2120012 8913153
0.0021852923 0.0021854462 -1.2112405 8978689
-0.0021855047 0.0021854467 -1.2112405 9044225
-0.0076541803 0.0021868187 -1.212001 8978689
-0.013137606 0.0021896204 -1.2135539 8978689
-0.016439326 0.001095948 -1.2148687 8913153
0.012923598 0.0072286031 -1.2140497 8519937
0.0076581091 0.0076581324 -1.2126555 8651009
0.002186453 0.007653235 -1.2118831 8782081
-0.0021866648 0.007653235 -1.2118831 8782081
-0.0076583214 0.0076581333 -1.2126555 8782081
-0.012923809 0.0072286027 -1.2140496 8716545
0.012056472 0.012056578 -1.2149845 8388865
0.0076672812 0.013143413 -1.2141052 8388865
0.0021890274 0.013134798 -1.2133095 8454401
-0.0021892388 0.013134792 -1.213309 8519937
-0.0076674954 0.013143416 -1.2141057 8519937
-0.012056692 0.012056585 -1.2149853 8519937
0.0054800585 0.016440494 -1.2149628 8257793
0.0021913168 0.016435262 -1.214576 8257793
-0.0021915294 0.016435264 -1.2145762 8323329
-0.0054802666 0.016440481 -1.2149619 8323329
0.0077004596 -0.020899581 -1.2193359 9240833
0.0021980943 -0.020882301 -1.2183278 9371905
-0.0021983075 -0.020882305 -1.218328 9371905
-0.0077006766 -0.020899588 -1.2193364 9371905
0.016507583 -0.016507689 -1.2199285 8978689
0.01282475 -0.017222084 -1.2185432 9109761
0.0076863156 -0.017568069 -1.217111 9240833
0.0021943138 -0.017555455 -1.2162371 9371905
-0.0021945261 -0.017555451 -1.2162368 9437441
-0.0076865288 -0.017568072 -1.2171111 9371905
-0.012824963 -0.017222086 -1.2185434 9306369
-0.016507804 -0.016507698 -1.2199292 9240833
0.017219733 -0.012823273 -1.2183846 8978689
0.013169928 -0.013170142 -1.2165563 9109761
0.0087728444 -0.014255587 -1.2155732 9240833
-0.0087730577 -0.014255587 -1.2155733 9371905
-0.01317014 -0.013170142 -1.2165563 9306369
-0.01721995 -0.012823277 -1.2183849 9175297
0.021444378 -0.0071483031 -1.2190268 8651009
0.017562963 -0.0076844092 -1.2167639 8847617
0.014253554 -0.0087717865 -1.2154089 9044225
-0.014253765 -0.0087717855 -1.2154088 9240833
-0.017563185 -0.0076844129 -1.2167645 9109761
-0.021444587 -0.0071483012 -1.2190264 8978689
0.02198516 -0.0021985518 -1.2185024 8519937
0.017548392 -0.0021935953 -1.2157557 8782081
-0.017548596 -0.0021935944 -1.2157552 9044225
-0.021985373 -0.0021985518 -1.2185025 8847617
0.021981614 0.0021981953 -1.2183058 8388865
0.017914385 0.0025590046 -1.2157904 8585473
-0.017914603 0.0025590055 -1.2157907 8847617
-0.021981822 0.0021981951 -1.2183057 8716545
0.021770949 0.0072569572 -1.2188256 8192257
0.017556077 0.0076811593 -1.216287 8388865
0.014250366 0.0098657114 -1.2151371 8388865
-0.01425058 0.0098657124 -1.2151372 8585473
-0.017556287 0.0076811574 -1.2162868 8585473
-0.021771165 0.0072569596 -1.2188256 8454401
0.020902395 0.012101448 -1.2195063 7995649
0.017579583 0.013184709 -1.2179132 8061185
0.01352916 0.013529173 -1.2159809 8192257
-0.013529372 0.013529174 -1.215981 8388865
-0.017579796 0.013184709 -1.2179132 8323329
-0.020902608 0.012101448 -1.2195063 8323329
0.016492991 0.016493097 -1.2188501 7930113
0.013183557 0.017578214 -1.2178138 7930113
0.0081194192 0.017774962 -1.2162507 8061185
0.0021934444 0.018644709 -1.215755 8126721
-0.0021936572 0.018644713 -1.2157553 8192257
-0.0081196334 0.017774964 -1.2162507 8192257
-0.013183768 0.017578213 -1.2178136 8126721
-0.016493184 0.016493078 -1.2188488 8126721
0.01209844 0.020897489 -1.2192138 7799041
0.0072541162 0.021762775 -1.2183626 7799041
0.0021969972 0.021971148 -1.2177219 7864577
-0.00219721 0.021971148 -1.2177219 7930113
-0.0072543295 0.021762779 -1.2183626 7930113
-0.012098652 0.020897489 -1.2192138 7930113
0.0077250884 -0.025379846 -1.2232087 9175297
0.0022071849 -0.02648787 -1.2233622 9240833
-0.0022073977 -0.026487857 -1.2233616 9240833
-0.0077252975 -0.025379835 -1.2232081 9240833
0.01766843 -0.020980552 -1.2240598 8913153
0.013232299 -0.022054065 -1.2223108 9044225
0.007712075 -0.023134379 -1.2211751 9240833
0.002201403 -0.023115182 -1.2201617 9306369
-0.0022016168 -0.023115188 -1.220162 9371905
-0.0077122906 -0.023134381 -1.2211752 9306369
-0.013232512 -0.022054061 -1.2223105 9240833
-0.017668629 -0.020980533 -1.2240589 9109761
0.020976359 -0.017665233 -1.2238216 8782081
0.018004149 -0.018004349 -1.2218925 8913153
0.014308119 -0.018710757 -1.2200618 9109761
-0.014308333 -0.018710757 -1.2200618 9306369
-0.018004362 -0.018004345 -1.2218924 9175297
-0.020976571 -0.017665233 -1.2238214 9044225
0.025406163 -0.012150824 -1.2244821 8519937
0.022047406 -0.013228541 -1.2219466 8716545
0.018710863 -0.014308388 -1.2200756 8913153
-0.018711053 -0.014308371 -1.2200741 9175297
-0.02204763 -0.013228547 -1.221947 9044225
-0.025406379 -0.012150827 -1.2244823 8847617
0.026265753 -0.0072837928 -1.2233193 8388865
0.02312777 -0.0088109281 -1.2208319 8651009
-0.023127967 -0.0088109216 -1.2208309 8913153
-0.026265966 -0.0072837928 -1.2233193 8716545
0.02646612 -0.0022055346 -1.2223721 8257793
-0.026466332 -0.0022055346 -1.2223722 8651009
0.026461819 0.0022051746 -1.2221736 8126721
-0.026462032 0.0022051749 -1.2221735 8454401
0.026481934 0.0077243694 -1.2231011 7864577
0.023122532 0.0099097025 -1.2205553 7995649
-0.023122771 0.0099097136 -1.2205567 8323329
-0.026482146 0.0077243685 -1.2231011 8257793
0.025396125 0.013250753 -1.2239983 7602176
0.022404267 0.013589312 -1.2213875 7799041
-0.022404473 0.01358931 -1.2213873 8126721
-0.02539633 0.01325075 -1.223998 7995649
0.021694813 0.017282171 -1.2228042 7602433
0.01798423 0.017984247 -1.2205392 7733505
-0.01798445 0.017984254 -1.2205397 7995649
-0.02169502 0.017282167 -1.222804 7864577
0.020995565 0.020995671 -1.224942 7340032
0.017281305 0.021693798 -1.2227442 7471104
0.013586264 0.02239961 -1.2211272 7536897
0.0099063413 0.023115046 -1.2201545 7667969
-0.0099065434 0.023115018 -1.2201531 7799041
-0.01358648 0.02239961 -1.2211274 7733505
-0.017281532 0.021693818 -1.2227453 7667969
-0.020995781 0.020995675 -1.2249422 7667969
0.01324422 0.025384065 -1.2234118 7340032
0.0077200062 0.026467143 -1.222417 7340032
0.0019837327 0.027121106 -1.2220123 7405568
-0.0019839469 0.027121115 -1.2220125 7471104
-0.0077202176 0.026467139 -1.2224169 7471104
-0.013244436 0.025384065 -1.2234119 7471104
0.016618233 -0.025481457 -1.2281058 8782081
0.013284898 -0.026570104 -1.2271588 8913153
0.0073055746 -0.028559145 -1.2270099 9044225
0.0022146634 -0.029898319 -1.2275025 9109761
-0.0022148776 -0.029898312 -1.2275021 9109761
-0.0073057851 -0.028559143 -1.2270095 9109761
-0.013285113 -0.026570106 -1.2271588 9109761
-0.016618526 -0.025481572 -1.2281114 9044225
0.021795666 -0.021795852 -1.2284874 8585473
0.01770068 -0.023231134 -1.2262824 8847617
-0.017700884 -0.023231126 -1.2262819 9044225
-0.021795886 -0.021795854 -1.2284875 8913153
0.025492575 -0.017734976 -1.2286469 8388865
0.023225594 -0.017696619 -1.2259958 8585473
-0.023225805 -0.017696615 -1.2259953 8913153
-0.025492761 -0.017734958 -1.2286454 8782081
0.026938869 -0.013653616 -1.2271702 8388865
-0.026939118 -0.013653633 -1.2271715 8716545
0.029342696 -0.0083045596 -1.2273964 8126721
-0.029342923 -0.0083045596 -1.2273967 8519937
0.032170724 -0.0022188392 -1.2297127 7733248
0.029867217 -0.0022124962 -1.22623 7995649
-0.029867366 -0.0022124932 -1.2262273 8388865
-0.032171007 -0.0022188409 -1.2297151 8192257
0.032163583 0.0022182912 -1.2294397 7602176
0.029862205 0.0022121235 -1.2260242 7864577
-0.029862482 0.00221213 -1.2260268 8257793
-0.032163922 0.002218297 -1.2294445 8061185
0.032177355 0.0055478383 -1.2299662 7471104
0.029888852 0.0077498779 -1.2271183 7602176
-0.029889045 0.0077498727 -1.2271173 7995649
-0.032177579 0.0055478401 -1.2299665 7929856
0.028421002 0.01291809 -1.2274264 7405568
-0.028421232 0.012918096 -1.2274271 7798784
0.026208777 0.017349152 -1.2275443 7274496
0.023211455 0.018790312 -1.2252493 7405568
-0.023211678 0.018790318 -1.2252496 7733505
-0.02620898 0.017349144 -1.2275437 7602176
0.025520371 0.021082135 -1.2299865 7012352
0.022523792 0.022523796 -1.2279009 7077888
0.018786749 0.023207292 -1.2250239 7274496
-0.01878695 0.023207279 -1.2250232 7536640
-0.02252401 0.022523796 -1.2279009 7405568
-0.025520498 0.021082062 -1.2299823 7340032
0.021078194 0.025515839 -1.2297629 6881280
0.017343951 0.026201004 -1.2271795 7012352
0.013288355 0.028791625 -1.2274753 6946816
0.0077443826 0.029868124 -1.2262627 7012352
0.0033153968 0.029839536 -1.2250891 7143424
-0.0033156127 0.029839549 -1.2250897 7208960
-0.0077445982 0.029868135 -1.2262632 7143424
-0.01328857 0.028791625 -1.2274753 7143424
-0.017344147 0.026200971 -1.227178 7274496
-0.021078408 0.025515836 -1.2297628 7143424
0.0066524879 0.032152399 -1.2290081 6750208
0.0022152576 0.032121189 -1.2278152 6881280
-0.0022154718 0.032121181 -1.2278149 6946816
-0.006652704 0.032152399 -1.2290082 6881280
0.012237596 -0.030781999 -1.2332993 8651009
0.0066736671 -0.032254741 -1.2329201 8782081
0.0022222998 -0.032223321 -1.2317191 8913153
-0.0022225184 -0.032223389 -1.2317216 8913153
-0.0066738832 -0.032254748 -1.2329204 8847617
-0.012237811 -0.030781994 -1.2332991 8847617
0.021131368 -0.025580207 -1.2328652 8454401
0.018151918 -0.027043551 -1.2319229 8585473
0.0099878609 -0.029963905 -1.2301952 8847617
-0.0099880649 -0.029963873 -1.2301939 9044225
-0.018152112 -0.027043521 -1.2319214 8847617
-0.021131668 -0.025580309 -1.2328701 8782081
0.025573172 -0.021125752 -1.2325313 8323329
0.023342688 -0.023342796 -1.2321765 8388865
-0.023342904 -0.023342796 -1.2321765 8716545
-0.025573418 -0.021125777 -1.2325327 8651009
0.027785555 -0.017784089 -1.2320267 8192000
-0.027785785 -0.0177841 -1.2320273 8585473
0.031527601 -0.012239496 -1.2334596 7864320
0.029969528 -0.012209852 -1.2304305 8061185
-0.029969765 -0.01220986 -1.2304313 8519937
-0.03152794 -0.012239541 -1.2334642 8323072
0.032207724 -0.0066641686 -1.2311271 7864320
-0.032207955 -0.0066641718 -1.2311276 8257793
0.034519568 -0.0022273245 -1.2343673 7405568
-0.034519818 -0.0022273262 -1.2343683 7929856
0.034509305 0.0022265189 -1.2340002 7340032
-0.034509536 0.0022265199 -1.2340008 7798784
0.033362575 0.0066703437 -1.232694 7208960
-0.033362783 0.0066703428 -1.2326938 7733248
0.032244243 0.011119401 -1.232523 7077888
0.029974505 0.014432221 -1.2306348 7143424
-0.029974695 0.014432209 -1.2306337 7536640
-0.032244403 0.011119381 -1.2325208 7536640
0.030021224 0.016678518 -1.2325529 6946816
0.027759422 0.01887648 -1.230868 7012352
-0.027759649 0.018876487 -1.2308685 7405568
-0.030021437 0.016678516 -1.2325528 7340032
0.026701588 0.022250667 -1.2332762 6750208
-0.026701812 0.022250669 -1.2332765 7077888
0.022245368 0.026695291 -1.2329841 6684672
0.018868383 0.027747782 -1.230347 6750208
-0.018868605 0.027747789 -1.2303474 7012352
-0.022245573 0.026695278 -1.2329835 6946816
0.017802685 0.030040149 -1.2333255 6684672
0.0133497 0.03226006 -1.2331234 6684672
0.0077813137 0.033726588 -1.2324735 6684672
0.0022231333 0.034458566 -1.232182 6684672
-0.0022233452 0.034458492 -1.2321794 6684672
-0.0077815312 0.033726592 -1.2324736 6684672
-0.013349917 0.03226006 -1.2331235 6684672
-0.017802928 0.030040193 -1.2333272 6750208
0.016726498 -0.030107891 -1.2361066 8454401
0.01227643 -0.032365419 -1.2371507 8519680
0.0055887145 -0.034650702 -1.2390525 8585216
0.0022331832 -0.034613162 -1.2377101 8585473
-0.0022333993 -0.034613147 -1.2377098 8651009
-0.0055889282 -0.034650683 -1.2390518 8650752
-0.012276751 -0.032365695 -1.2371613 8651009
-0.016726682 -0.030107832 -1.2361042 8651009
0.022322161 -0.026788004 -1.2372545 8192000
-0.022322569 -0.026788251 -1.2372656 8519680
0.026780827 -0.022316847 -1.2369399 8060928
-0.026781023 -0.022316832 -1.236939 8388608
0.030131709 -0.017857701 -1.2370889 7864320
-0.03013188 -0.017857673 -1.237087 8257536
0.033524394 -0.012290551 -1.2387133 7536640
-0.033524614 -0.012290553 -1.2387134 7932165
0.034575634 -0.0066927657 -1.236372 7471104
-0.034575846 -0.0066927657 -1.2363719 7929856
0.034558259 0.0078035025 -1.2357508 7012352
-0.034558505 0.007803509 -1.2357519 7471104
0.033864107 0.012278666 -1.2374932 6817283
-0.033864334 0.012278672 -1.2374938 7208960
0.031242985 0.017851133 -1.2368503 6684672
-0.031243205 0.017851137 -1.2368505 7012352
0.030193003 0.021247003 -1.2396054 6946816
0.027915783 0.023449348 -1.2378011 6684672
-0.02791588 0.02344925 -1.2377958 6750208
-0.030193234 0.021247014 -1.239606 6750208
0.025667226 0.025667334 -1.2370644 6684672
0.023435827 0.027899925 -1.2370931 6684672
-0.023436042 0.027899921 -1.237093 6684672
-0.025667541 0.025667433 -1.2370691 6750208
0.021233805 0.030174507 -1.2388417 6684672
0.01673881 0.032361906 -1.2370164 6684672
0.011157634 0.034585238 -1.2367116 6684672
-0.011157838 0.034585197 -1.2367102 6684672
-0.016739039 0.032361936 -1.2370175 6684672
-0.021233972 0.030174438 -1.2388388 6815744
0.0055927834 0.036913086 -1.2399546 6684672
0.0022347926 0.036872689 -1.2385976 6684672
-0.0022350177 0.036872886 -1.2386043 6684672
-0.0055930023 0.036913101 -1.2399551 6820619
0.01902923 -0.030223068 -1.2408353 7868938
0.014545364 -0.032447591 -1.2402917 7934474
0.0078335106 -0.03469174 -1.24052 7999753
-0.007833722 -0.034691721 -1.2405193 8196618
-0.014545555 -0.032447536 -1.2402896 8585216
-0.019029571 -0.030223265 -1.2408434 8065545
0.032533366 -0.016827658 -1.2435745 7349781
-0.032533702 -0.016827719 -1.243579 7803402
0.034815863 -0.012354054 -1.2449622 7218709
-0.034815963 -0.012354014 -1.2449582 7541514
0.037007499 -0.0011214426 -1.2431297 7087639
-0.037007529 -0.0011214369 -1.2431234 7672330
0.03700285 0.0022428823 -1.2429734 7019535
-0.037002865 0.0022428641 -1.2429668 7347216
0.032560855 0.019087462 -1.2446253 6825236
-0.032561045 0.019087445 -1.2446243 6890515
0.019043265 0.032485753 -1.2417505 6956566
0.014556068 0.034710884 -1.2412045 6956822
-0.014556289 0.034710892 -1.2412047 6820875
-0.019043501 0.032485791 -1.2417518 6820875
0.0078408476 0.03696451 -1.2416819 6956566
-0.0078411121 0.036964729 -1.2416893 6820619
0.010117548 -0.034849707 -1.2461686 7803145
-0.010117734 -0.034849595 -1.2461647 7742483
0.025845107 -0.025845215 -1.2456375 7480853
-0.025844689 -0.025844581 -1.245607 7479569
0.028133558 -0.023632281 -1.2474574 7415317
-0.028133925 -0.023632405 -1.2474639 7414289
0.03707986 -0.0033709062 -1.2455604 7022102
-0.037080076 -0.0033709062 -1.2455604 7152146
0.037103802 0.0056218044 -1.2463646 6956566
-0.037102953 0.0056216433 -1.2463288 7153174
