# .PCD v0.7 - Point Cloud Data file format
VERSION 0.7
FIELDS x y z rgb
SIZE 4 4 4 4
TYPE F F F U
COUNT 1 1 1 1
WIDTH 750
HEIGHT 1
VIEWPOINT 0 0 0 1 0 0 0
POINTS 750
DATA ascii
-0.38369307 -0.33162841 -1.2546526 1313797
-0.38696289 -0.3315208 -1.2542455 1379334
-0.39258969 -0.33149472 -1.2541467 1379333
-0.3973279 -0.33167246 -1.2548193 1313286
-0.38254303 -0.32821742 -1.2545937 1446148
-0.38687935 -0.32805547 -1.2539747 1577733
-0.39250624 -0.32803079 -1.2538803 1577476
-0.39800158 -0.32858685 -1.2545633 1511683
-0.3837274 -0.32260236 -1.2547648 1446148
-0.38701761 -0.32251441 -1.2544228 1577733
-0.39235532 -0.3227663 -1.254302 1577476
-0.39656353 -0.32260862 -1.2547884 1511683
-0.38750398 -0.31732306 -1.2547764 1577733
-0.3916254 -0.31692207 -1.2546828 1577476
-0.39509094 -0.31811038 -1.2549051 1577476
-0.38831586 -0.31359607 -1.254961 1643269
-0.39055941 -0.31244737 -1.2548945 1577476
-0.37826267 -0.33509746 -1.259182 2168332
-0.40344357 -0.33525583 -1.2597771 2102539
-0.37287736 -0.33123663 -1.258898 1116675
-0.37761393 -0.33225593 -1.2570266 1181957
-0.38203856 -0.33385992 -1.2566594 985606
-0.38742912 -0.33418593 -1.2557567 1116680
-0.39192215 -0.33415306 -1.2556334 1051143
-0.39774248 -0.33352986 -1.2561291 1050887
-0.40157539 -0.33351314 -1.2574883 1050886
-0.4063684 -0.33145145 -1.2582771 1248004
-0.37252599 -0.32709634 -1.2589912 1051650
-0.3774035 -0.32753691 -1.2563252 1314563
-0.39973569 -0.32612973 -1.2552708 1511683
-0.40351275 -0.3275699 -1.2564521 1380355
-0.40760547 -0.32699245 -1.2585915 1314563
-0.37357724 -0.32247984 -1.2587044 1182979
-0.37754878 -0.32199425 -1.2568089 1314563
-0.38163629 -0.32274848 -1.2553332 1446148
-0.39905599 -0.32128325 -1.255507 1511683
-0.40236396 -0.32189095 -1.2564058 1445891
-0.40646344 -0.32244506 -1.2585689 1314563
-0.37368643 -0.31803083 -1.2590723 1117442
-0.37765467 -0.31754822 -1.2571616 1314563
-0.38280943 -0.31712028 -1.2554674 1446148
-0.38606498 -0.31587124 -1.2550044 1643269
-0.39753607 -0.31712252 -1.2554754 1511683
-0.40169236 -0.31704575 -1.256668 1445891
-0.40616941 -0.31834865 -1.2588305 1380099
-0.3738279 -0.31246978 -1.2595489 1051906
-0.37775195 -0.31309244 -1.2574855 1314563
-0.38290161 -0.31266528 -1.25577 1446148
-0.3868756 -0.31214249 -1.2551858 1643269
-0.39288679 -0.31249768 -1.2550967 1577476
-0.39642328 -0.31260774 -1.2555387 1511939
-0.40139264 -0.31294969 -1.2569122 1446147
-0.40541399 -0.31229332 -1.2588378 1380355
-0.37393424 -0.3080126 -1.2599072 1051906
-0.37786049 -0.30750868 -1.2578466 1314563
-0.38298434 -0.30820048 -1.256041 1511684
-0.38731807 -0.30804235 -1.2553968 1643269
-0.39181119 -0.3080132 -1.2552779 1577732
-0.39651912 -0.30815169 -1.2558422 1511939
-0.40153924 -0.30739236 -1.2573711 1446147
-0.40558037 -0.3067413 -1.2593544 1314819
-0.37795559 -0.30191118 -1.2581633 1314563
-0.38307688 -0.30260798 -1.2563444 1511940
-0.38740984 -0.3024514 -1.2556943 1643525
-0.39190945 -0.30242693 -1.2555927 1577732
-0.39662632 -0.30256876 -1.2561817 1511939
-0.40166879 -0.30181837 -1.2577766 1446147
-0.40569636 -0.30228341 -1.2597146 1314819
-0.37702492 -0.2975319 -1.2588434 1314563
-0.38210964 -0.2970708 -1.2568924 1446148
-0.38748869 -0.296848 -1.2559497 1643526
-0.39199379 -0.29682747 -1.2558628 1643268
-0.39671841 -0.29697174 -1.2564733 1577475
-0.40175912 -0.29734659 -1.2580594 1446147
-0.37708455 -0.29303578 -1.2590425 1314563
-0.38216403 -0.29257706 -1.2570715 1446148
-0.38754287 -0.29235685 -1.2561253 1643526
-0.39205182 -0.29233903 -1.2560488 1643268
-0.39678156 -0.29248434 -1.2566732 1577475
-0.40183806 -0.2928645 -1.2583066 1446147
-0.37714484 -0.28740272 -1.2592438 1314563
-0.38220939 -0.28807512 -1.2572206 1511684
-0.38758761 -0.28785741 -1.2562704 1709062
-0.39209983 -0.28784186 -1.2562026 1643268
-0.39683422 -0.28798789 -1.25684 1577476
-0.40218246 -0.28772646 -1.2586737 1446147
-0.37719148 -0.28175771 -1.2593997 1248771
-0.38225314 -0.28243667 -1.2573645 1511684
-0.38762367 -0.28335059 -1.2563872 1709062
-0.39213854 -0.28333694 -1.2563267 1643268
-0.39688608 -0.2823557 -1.2570041 1577476
-0.4017033 -0.28225869 -1.2585955 1446147
-0.3775444 -0.27757314 -1.2593135 1248771
-0.38228524 -0.2767885 -1.25747 1511684
-0.38765702 -0.27770743 -1.2564954 1709062
-0.39217433 -0.27769551 -1.2564412 1643268
-0.39692542 -0.2767134 -1.2571287 1577476
-0.40201807 -0.27709666 -1.2588699 1511683
-0.37822035 -0.27259114 -1.2590411 1314563
-0.3822999 -0.27226147 -1.2575183 1511940
-0.38767698 -0.27205402 -1.2565601 1709318
-0.39219588 -0.27204323 -1.2565103 1643269
-0.39694417 -0.27219 -1.2571882 1577476
-0.40204436 -0.27257192 -1.2589524 1511683
-0.37822843 -0.26805371 -1.259068 1314563
-0.38230696 -0.26772872 -1.2575415 1577476
-0.38768369 -0.26752439 -1.2565818 1774854
-0.39220327 -0.26751423 -1.2565341 1643525
-0.39695364 -0.2676599 -1.2572181 1577476
-0.40205848 -0.26803851 -1.2589966 1511683
-0.37822661 -0.2623733 -1.2590618 1314563
-0.38230601 -0.26319027 -1.2575384 1577476
-0.38768265 -0.26298934 -1.2565784 1774854
-0.39220244 -0.26297951 -1.2565314 1643525
-0.39695305 -0.26312286 -1.2572163 1577476
-0.40232924 -0.26284224 -1.2591331 1511683
-0.37822279 -0.25669169 -1.2590492 1314819
-0.38230273 -0.25751585 -1.2575276 1577476
-0.38767949 -0.25731942 -1.2565683 1774854
-0.39219928 -0.25730979 -1.2565212 1643525
-0.39694974 -0.25744998 -1.2572058 1577476
-0.40178272 -0.25733095 -1.2588443 1511683
-0.37821972 -0.25214639 -1.2590389 1314819
-0.38229907 -0.25184134 -1.2575155 1577476
-0.38767612 -0.25164938 -1.2565572 1774854
-0.39219585 -0.25163999 -1.2565103 1643525
-0.39694622 -0.25177705 -1.2571945 1577476
-0.40205136 -0.25213343 -1.2589743 1511683
-0.37822115 -0.24760415 -1.2590437 1314563
-0.38230088 -0.2473048 -1.2575215 1511940
-0.3876783 -0.24711655 -1.2565643 1709318
-0.39219844 -0.24710757 -1.2565186 1643269
-0.3969492 -0.24724236 -1.2572042 1577476
-0.4020547 -0.24759252 -1.2589847 1511683
-0.37822658 -0.24306445 -1.2590618 1314563
-0.38230598 -0.24277033 -1.2575382 1511940
-0.38768336 -0.24258548 -1.2565807 1709318
-0.39220408 -0.24257696 -1.2565367 1643269
-0.39695603 -0.24270999 -1.2572258 1577476
-0.40206358 -0.24305493 -1.2590125 1511683
-0.37823462 -0.2373904 -1.2590886 1314563
-0.38231099 -0.2382357 -1.2575549 1511940
-0.38768843 -0.23805429 -1.2565972 1709062
-0.39220974 -0.23804623 -1.2565546 1643268
-0.39696297 -0.23817752 -1.2572477 1577476
-0.40234649 -0.23786302 -1.259187 1511683
-0.37824988 -0.23172057 -1.2591393 1314563
-0.38232455 -0.23257163 -1.2575994 1511684
-0.38770247 -0.2323947 -1.2566427 1709062
-0.39222494 -0.23238747 -1.2566034 1643268
-0.39698088 -0.23251708 -1.2573044 1577476
-0.40182585 -0.23237221 -1.2589792 1511683
-0.37826347 -0.22718519 -1.2591846 1314563
-0.38234031 -0.22690852 -1.2576512 1511684
-0.38771847 -0.22673593 -1.2566946 1709062
-0.39224237 -0.22672957 -1.2566594 1643268
-0.39700139 -0.22685769 -1.2573694 1577476
-0.40212283 -0.22718759 -1.259198 1511683
-0.37827921 -0.22265074 -1.2592371 1314563
-0.38235548 -0.22237916 -1.257701 1511683
-0.387734 -0.22221009 -1.2567449 1709062
-0.39225924 -0.22220452 -1.2567134 1643268
-0.39702082 -0.2223314 -1.257431 1577476
-0.40214789 -0.22265771 -1.2592765 1511683
-0.37830138 -0.21811962 -1.2593107 1314563
-0.3823761 -0.21785259 -1.2577691 1446147
-0.38775462 -0.21768679 -1.2568117 1709062
-0.39228144 -0.21768206 -1.2567844 1643268
-0.39704686 -0.21780831 -1.2575134 1577476
-0.40082341 -0.21801153 -1.2586867 1511683
-0.37832963 -0.21245527 -1.2594048 1314563
-0.38210005 -0.21285436 -1.2579277 1446147
-0.38777527 -0.21316297 -1.2568786 1709061
-0.39230365 -0.21315908 -1.2568556 1643268
-0.39707285 -0.2132846 -1.2575958 1577476
-0.4008663 -0.21235681 -1.2588214 1511683
-0.37836432 -0.20679362 -1.2595203 1314563
-0.38269135 -0.20737398 -1.2578726 1446147
-0.38780656 -0.20751046 -1.2569801 1709061
-0.39233729 -0.20750771 -1.2569634 1643268
-0.3971118 -0.20763247 -1.2577192 1577476
-0.40091884 -0.20670593 -1.2589862 1446147
-0.37839496 -0.20226508 -1.2596223 1314563
-0.38246325 -0.20201351 -1.2580557 1446147
-0.387842 -0.20185925 -1.2570949 1643525
-0.39237547 -0.20185775 -1.2570857 1643268
-0.39715624 -0.20198207 -1.2578598 1577476
-0.40096462 -0.20218605 -1.2591301 1446147
-0.37842661 -0.19773635 -1.2597277 1314563
-0.38249269 -0.19748908 -1.2581525 1446147
-0.38787159 -0.19733813 -1.2571908 1643525
-0.39240727 -0.19733763 -1.2571876 1643268
-0.39719322 -0.19746152 -1.2579769 1577476
-0.40101188 -0.19766581 -1.2592785 1446147
-0.37846476 -0.19321012 -1.2598546 1314563
-0.38252816 -0.192967 -1.2582691 1446147
-0.387907 -0.19281921 -1.2573056 1643269
-0.3924453 -0.1928198 -1.2573094 1643268
-0.39723736 -0.19294362 -1.2581167 1577476
-0.40106839 -0.19314899 -1.2594559 1446147
-0.37849417 -0.18981533 -1.2599525 1314563
-0.38231075 -0.18760765 -1.2584875 1446147
-0.38794315 -0.18829983 -1.2574227 1643269
-0.39248407 -0.18830147 -1.2574337 1643268
-0.39753813 -0.18775745 -1.2583501 1577476
-0.40114129 -0.18750215 -1.2596849 1446147
-0.38292044 -0.18213458 -1.2584926 1446147
-0.38799179 -0.18265098 -1.2575804 1643269
-0.39253628 -0.18265398 -1.2576008 1643268
-0.39709988 -0.18231586 -1.2584003 1577476
-0.40122175 -0.18185678 -1.2599375 1446147
-0.38267148 -0.17714192 -1.2587405 1446147
-0.38804641 -0.17700358 -1.2577574 1643269
-0.39259496 -0.177008 -1.2577889 1643268
-0.39741147 -0.17713174 -1.2586682 1511940
-0.38271666 -0.17262022 -1.2588893 1446147
-0.38809037 -0.17248458 -1.2579 1643269
-0.3926422 -0.17249009 -1.2579402 1577732
-0.39746642 -0.17261377 -1.2588422 1511939
-0.38276789 -0.16810006 -1.2590576 1445891
-0.38814017 -0.16796704 -1.2580614 1643269
-0.39269558 -0.1679737 -1.2581112 1577732
-0.39752853 -0.16809756 -1.2590389 1511939
-0.38309073 -0.16272157 -1.2591854 1445891
-0.38820481 -0.16231944 -1.2582709 1643269
-0.39276484 -0.16232747 -1.2583333 1577732
-0.3976092 -0.16245146 -1.2592944 1511683
-0.383587 -0.15714562 -1.2592595 1511684
-0.38761869 -0.15645531 -1.2585797 1511940
-0.39283729 -0.15668064 -1.2585652 1577476
-0.39769495 -0.1568052 -1.2595659 1446147
-0.38295299 -0.15227202 -1.2596642 1511684
-0.38723752 -0.15216962 -1.2588171 1511940
-0.39290103 -0.15216385 -1.2587694 1577476
-0.39652193 -0.15224613 -1.2594502 1511939
-0.3830125 -0.14774954 -1.25986 1511684
-0.38729712 -0.14764994 -1.2590108 1511940
-0.39296478 -0.14764559 -1.2589736 1577476
-0.39659566 -0.14772895 -1.2596846 1511939
-0.38736048 -0.14313029 -1.2592169 1511940
-0.39303255 -0.14312732 -1.2591908 1511939
-0.39667404 -0.14321172 -1.2599334 1511939
-0.38744479 -0.13748035 -1.259491 1511940
-0.39312339 -0.13747935 -1.2594818 1511939
-0.38796437 -0.13204885 -1.259702 1511940
-0.39322051 -0.13183102 -1.259793 1511939
-0.38906145 -0.12766668 -1.2598195 1577476
-0.39212555 -0.12729862 -1.2599267 1577476
-0.38986194 -0.12389195 -1.2599577 1577476
-0.32621524 -0.042055607 -1.2599739 3547921
-0.37838045 -0.042042259 -1.2595741 855825
-0.38178927 -0.042042255 -1.2595739 855825
-0.38747063 -0.042042255 -1.2595739 855825
-0.39315203 -0.042042255 -1.2595739 855825
-0.39769715 -0.042042255 -1.2595739 855825
-0.40225911 -0.042044014 -1.2596266 1512466
-0.3283838 -0.03976965 -1.2595723 724238
-0.33142215 -0.035982948 -1.259604 724239
-0.33522832 -0.03522737 -1.2596732 2366484
-0.37749016 -0.037044503 -1.2596369 724239
-0.38178816 -0.037497044 -1.2595702 855825
-0.38746956 -0.037497044 -1.2595702 855825
-0.39315093 -0.03749704 -1.2595704 855825
-0.39769602 -0.037497044 -1.2595704 855825
-0.40224111 -0.037497044 -1.2595704 790032
-0.40578258 -0.035236012 -1.2599822 2234642
-0.33292744 -0.03295185 -1.2595668 724238
-0.33701774 -0.031588305 -1.2595656 790032
-0.34321037 -0.030684344 -1.2597735 2366484
-0.37724173 -0.031815559 -1.2595658 790032
-0.38178682 -0.031815559 -1.2595658 855825
-0.38746819 -0.031815559 -1.2595658 855825
-0.3931495 -0.031815559 -1.2595658 855825
-0.39769462 -0.031815559 -1.2595658 855825
-0.40223968 -0.031815559 -1.2595659 855825
-0.40564847 -0.031815559 -1.2595658 855568
-0.33898643 -0.027649164 -1.2595626 855825
-0.34315264 -0.027270403 -1.2595623 855825
-0.34769911 -0.027270515 -1.2595674 855825
-0.35224253 -0.026134113 -1.2595613 855825
-0.35565132 -0.026134113 -1.2595613 855825
-0.37387633 -0.027273782 -1.2597122 724238
-0.37724066 -0.027270401 -1.2595623 855825
-0.38178572 -0.027270401 -1.2595623 855825
-0.38746703 -0.027270401 -1.2595624 855825
-0.39314836 -0.027270401 -1.2595623 855825
-0.39769343 -0.027270401 -1.2595621 855825
-0.40223852 -0.027270401 -1.2595623 855825
-0.40678358 -0.027270401 -1.2595623 855825
-0.41019207 -0.026134113 -1.2595613 2300691
-0.34353054 -0.023104029 -1.259559 855825
-0.34769672 -0.022725269 -1.2595587 855825
-0.35224175 -0.022725269 -1.2595587 855825
-0.35678685 -0.022725269 -1.2595587 855825
-0.36246812 -0.022725269 -1.2595587 855825
-0.36816922 -0.022726545 -1.259626 789775
-0.37269449 -0.022725269 -1.2595587 855825
-0.37723956 -0.022725267 -1.2595587 855825
-0.38178462 -0.022725267 -1.2595587 855825
-0.38746592 -0.022725269 -1.2595587 855825
-0.39314726 -0.022725269 -1.2595587 855825
-0.39769229 -0.022725267 -1.2595587 855825
-0.40223736 -0.022725267 -1.2595587 855825
-0.40678245 -0.022725269 -1.2595587 855825
-0.41019118 -0.022725269 -1.2595587 790032
-0.44304392 -0.022720702 -1.2592783 790031
-0.44748145 -0.022715412 -1.2589779 987411
-0.45202518 -0.022715451 -1.2589799 987411
-0.45617187 -0.022335833 -1.2589313 1381394
-0.34807456 -0.018558919 -1.2595552 658446
-0.35224077 -0.018180164 -1.2595551 855825
-0.3567858 -0.018180164 -1.2595551 855825
-0.36246708 -0.018180164 -1.259555 855825
-0.36814842 -0.018180164 -1.2595551 855825
-0.37269342 -0.018180162 -1.259555 855825
-0.37723851 -0.018180162 -1.259555 855825
-0.38178352 -0.018180162 -1.259555 855825
-0.38746479 -0.018180162 -1.259555 855825
-0.3931461 -0.018180162 -1.259555 855825
-0.39769113 -0.018180164 -1.2595551 855825
-0.40223622 -0.018180164 -1.2595551 855825
-0.40678126 -0.018180164 -1.2595551 855825
-0.41019005 -0.018180164 -1.2595551 790032
-0.4378719 -0.017951263 -1.259433 921618
-0.44251478 -0.018154645 -1.2577748 855568
-0.44685525 -0.018146569 -1.257216 987411
-0.45252654 -0.018146595 -1.2572175 987411
-0.45706359 -0.018146612 -1.2572187 2300947
-0.35337627 -0.014771351 -1.2595524 723982
-0.35679421 -0.013635415 -1.2595848 724239
-0.36246854 -0.012498897 -1.2595601 790032
-0.3681471 -0.012498818 -1.2595505 855825
-0.37269211 -0.012498818 -1.2595505 855825
-0.37723711 -0.012498818 -1.2595505 855825
-0.38178217 -0.012498818 -1.2595506 855825
-0.38746345 -0.012498818 -1.2595506 855825
-0.39314473 -0.012498818 -1.2595505 855825
-0.39768979 -0.012498818 -1.2595505 855825
-0.40223476 -0.012498818 -1.2595505 855825
-0.4067798 -0.012498818 -1.2595506 855825
-0.41018856 -0.012498819 -1.2595506 790032
-0.43771544 -0.013145906 -1.2593565 658189
-0.4425275 -0.012481022 -1.257811 592395
-0.44687173 -0.012475569 -1.2572623 723982
-0.45254242 -0.012475562 -1.2572618 723982
-0.45710209 -0.012476073 -1.2573247 2169104
-0.36483803 -0.0079559665 -1.2598948 395016
-0.368146 -0.0079537695 -1.2595469 658446
-0.37271905 -0.0068179443 -1.2596418 658189
-0.3772445 -0.006817644 -1.2595751 658189
-0.38178912 -0.006817637 -1.2595736 658189
-0.38746989 -0.0068176277 -1.2595714 658189
-0.39315066 -0.0068176193 -1.2595695 658189
-0.39769524 -0.0068176119 -1.259568 658189
-0.40223986 -0.0068176044 -1.2595664 658189
-0.40678445 -0.0068175979 -1.2595649 658189
-0.41019285 -0.0068175923 -1.2595637 1446672
-0.44297367 -0.0079508144 -1.2590787 395017
-0.44738242 -0.0079484172 -1.2586992 460810
-0.45192295 -0.0079483911 -1.2586952 460810
-0.45666271 -0.0079518277 -1.2592393 2037262
-0.37443945 -0.33574346 -1.2616094 3416849
-0.37629339 -0.33536711 -1.2601953 2102540
-0.36903998 -0.33145362 -1.2626097 1576710
-0.37131071 -0.33372492 -1.2625843 787971
-0.40855664 -0.33344585 -1.2615285 2233354
-0.41071674 -0.33107629 -1.2611724 2365192
-0.36977071 -0.32767355 -1.2612128 985858
-0.41072088 -0.32766622 -1.2611852 1117443
-0.36991215 -0.32324609 -1.2616951 1117442
-0.37173522 -0.3228524 -1.2601585 985858
-0.41112235 -0.3222917 -1.2624179 1051650
-0.37115395 -0.31790495 -1.2612759 1051650
-0.4082244 -0.31611782 -1.2605026 1248771
-0.41178042 -0.31710467 -1.2644385 2299400
-0.37203997 -0.31173974 -1.2611916 986114
-0.40844268 -0.31173596 -1.2611766 1248771
-0.37275767 -0.30677676 -1.2610556 986114
-0.40864187 -0.3073349 -1.2617917 1182979
-0.37314388 -0.30261099 -1.2610798 1051650
-0.40882188 -0.30291519 -1.2623476 1117442
-0.37322617 -0.29812619 -1.2613578 1051650
-0.40776724 -0.29757023 -1.2618992 1117698
-0.37331292 -0.29250467 -1.2616509 1051650
-0.40736759 -0.29214576 -1.2620709 1708549
-0.3733848 -0.28686923 -1.2618939 1117186
-0.40729868 -0.28734824 -1.262328 1643012
-0.37342873 -0.28234896 -1.2620424 1117186
-0.40622324 -0.28219414 -1.2613505 1314563
-0.37346071 -0.27781874 -1.2621505 1117186
-0.37623897 -0.27621162 -1.260013 1248771
-0.40628529 -0.27768505 -1.2615433 1314563
-0.3733044 -0.27263296 -1.2623918 985858
-0.37625057 -0.27280998 -1.2600518 1248771
-0.40632981 -0.27316281 -1.2616816 1314563
-0.37367588 -0.26710659 -1.262108 1051394
-0.37625927 -0.26826936 -1.2600809 1248771
-0.40635586 -0.26748908 -1.2617623 1314563
-0.37349245 -0.2619006 -1.2622578 1051650
-0.3762573 -0.26258433 -1.2600743 1248771
-0.4063555 -0.26179761 -1.2617612 1314563
-0.3734892 -0.25734356 -1.2622467 1051650
-0.37625372 -0.25689822 -1.2600623 1249027
-0.40635198 -0.25724235 -1.2617502 1314563
-0.37348598 -0.25278664 -1.2622359 1051650
-0.37625074 -0.25234938 -1.2600524 1249027
-0.40634862 -0.25268731 -1.2617399 1314563
-0.37348658 -0.24823231 -1.2622378 985858
-0.37625176 -0.2478032 -1.2600558 1248771
-0.40635243 -0.2481367 -1.2617517 1314563
-0.37349465 -0.24254416 -1.2622652 985858
-0.37625712 -0.24325982 -1.2600738 1248771
-0.40637031 -0.24245615 -1.2618073 1314563
-0.37350398 -0.23685655 -1.2622967 920322
-0.37626481 -0.23758101 -1.2600995 1248771
-0.40639102 -0.23677675 -1.2618716 1314563
-0.37351888 -0.23231086 -1.262347 920322
-0.37627977 -0.23190649 -1.2601497 1248771
-0.40642291 -0.23224156 -1.2619705 1314563
-0.37353501 -0.2277656 -1.2624016 920322
-0.37629354 -0.22736761 -1.2601957 1248771
-0.4064573 -0.22770707 -1.2620773 1314563
-0.37355316 -0.22322112 -1.2624629 1051650
-0.3763091 -0.22282948 -1.2602479 1248771
-0.40649539 -0.22317386 -1.2621956 1314563
-0.37376383 -0.21797256 -1.262405 1117186
-0.37633103 -0.21829465 -1.2603213 1248771
-0.40354007 -0.21825257 -1.2600784 1445891
-0.40656018 -0.21751523 -1.2623967 1248771
-0.37452412 -0.21173695 -1.2618947 1051650
-0.37635878 -0.21262558 -1.2604145 1248771
-0.40358302 -0.21259148 -1.2602124 1445891
-0.40662593 -0.21185544 -1.2626009 1248771
-0.37455809 -0.20720226 -1.2620091 1051650
-0.37639308 -0.20695925 -1.260529 1248771
-0.40363565 -0.20693424 -1.2603768 1380355
-0.4066923 -0.20733321 -1.2628069 1248771
-0.37459439 -0.20266801 -1.2621316 1051650
-0.37642348 -0.20242703 -1.2606308 1248771
-0.4036822 -0.20240957 -1.2605221 1380355
-0.40676343 -0.20281193 -1.2630279 1248771
-0.37463123 -0.19813314 -1.2622555 1051650
-0.37645471 -0.19789453 -1.2607355 1182978
-0.40372986 -0.19788441 -1.260671 1380355
-0.40683568 -0.19828954 -1.2632521 1117442
-0.37468693 -0.19246821 -1.2624433 1051650
-0.3764925 -0.19336462 -1.260862 1182978
-0.40378648 -0.19336244 -1.2608478 1380355
-0.40696159 -0.19265099 -1.2636433 1117442
-0.37474486 -0.18680282 -1.2626386 1051650
-0.37733573 -0.18718976 -1.2606405 1182978
-0.40387872 -0.18771805 -1.2611358 1380355
-0.40720266 -0.18706208 -1.2643917 2562569
-0.37479621 -0.18227161 -1.2628115 1051650
-0.37758708 -0.18196982 -1.2607205 1248770
-0.40400046 -0.18208459 -1.2615161 1314563
-0.40737388 -0.18371758 -1.2649233 2431497
-0.3748523 -0.17774142 -1.2630005 1051650
-0.37763876 -0.17744485 -1.2608931 1183234
-0.40270102 -0.17746101 -1.261008 1380355
-0.37490833 -0.17320985 -1.2631893 1051650
-0.37769055 -0.17291871 -1.2610662 1183234
-0.40279087 -0.17294928 -1.2612894 1380355
-0.37497067 -0.16867971 -1.2633994 1117186
-0.37714133 -0.16732277 -1.2617682 1182978
-0.40319875 -0.16778976 -1.2618535 1314563
-0.37718025 -0.16216004 -1.2620819 1182978
-0.38078457 -0.16027048 -1.2600094 1380099
-0.40273875 -0.16232385 -1.2618386 1314819
-0.3769829 -0.15717171 -1.2625099 1182978
-0.38082945 -0.1568789 -1.2601578 1380099
-0.40315622 -0.15716206 -1.2624327 1249027
-0.3770549 -0.15264517 -1.2627512 1183234
-0.38089406 -0.15235752 -1.2603717 1380099
-0.39903444 -0.15233782 -1.2602088 1446147
-0.40327653 -0.15265214 -1.2628092 1183234
-0.37804499 -0.1480298 -1.2622499 1182978
-0.38095868 -0.14783461 -1.2605855 1380099
-0.39912868 -0.14782533 -1.2605064 1446147
-0.40286765 -0.14846492 -1.2627181 1183490
-0.4050827 -0.14719902 -1.2648953 2563081
-0.37813902 -0.14237164 -1.2625638 1117442
-0.38205141 -0.1432693 -1.2604399 1380355
-0.39922842 -0.14331265 -1.2608213 1446147
-0.40199563 -0.14234939 -1.2623676 1314819
-0.3782388 -0.13671295 -1.2628971 1117442
-0.38213921 -0.13761556 -1.2607297 1380355
-0.39807037 -0.13761824 -1.2607547 1446147
-0.40219674 -0.13672395 -1.2629993 1314563
-0.37831992 -0.13218418 -1.263168 1117442
-0.38222837 -0.13195983 -1.2610239 1380355
-0.38536108 -0.13072717 -1.2601069 1446148
-0.39819127 -0.13197169 -1.2611375 1446147
-0.40236193 -0.13222076 -1.263518 1248771
-0.37840775 -0.12765574 -1.2634614 1117186
-0.3823061 -0.1274354 -1.2612804 1380355
-0.38614881 -0.12694786 -1.2602048 1446148
-0.39448687 -0.12732707 -1.2602084 1511939
-0.39829665 -0.12745464 -1.2614709 1446147
-0.4025414 -0.12771836 -1.2640815 1182979
-0.37849921 -0.12312637 -1.2637668 1182978
-0.3823846 -0.12290935 -1.2615392 1314563
-0.38724408 -0.12256291 -1.2603166 1511684
-0.39339265 -0.12279294 -1.2603444 1511939
-0.39840305 -0.1229355 -1.2618079 1446147
-0.40272331 -0.12321264 -1.2646527 1117186
-0.37879518 -0.11790345 -1.2639933 1117442
-0.38227674 -0.11771095 -1.2619346 1314563
-0.38775745 -0.11826035 -1.2605075 1511684
-0.39348114 -0.11827163 -1.2606279 1511939
-0.39880064 -0.11774912 -1.2623456 1380355
-0.37966383 -0.11173278 -1.2638462 1051906
-0.38278231 -0.11226132 -1.2621003 1314563
-0.38676107 -0.11261556 -1.2609657 1511684
-0.39242077 -0.11260739 -1.2608743 1511939
-0.39730635 -0.11270267 -1.2619418 1446147
-0.40006706 -0.11169948 -1.2634699 1314563
-0.37977064 -0.1072024 -1.2642016 986114
-0.38268101 -0.10705958 -1.2625172 1314563
-0.38686508 -0.10695677 -1.2613046 1511684
-0.39253628 -0.10695171 -1.2612451 1511939
-0.3974691 -0.10705459 -1.2624587 1446147
-0.40026069 -0.10719214 -1.2640815 1314563
-0.37987459 -0.1026687 -1.2645478 986114
-0.38276494 -0.10252634 -1.2627943 1314563
-0.38694534 -0.10242666 -1.2615664 1511684
-0.39142537 -0.10240768 -1.2613328 1577476
-0.39631212 -0.1024943 -1.2623997 1446147
-0.40045249 -0.10267995 -1.2646872 1248771
-0.3799656 -0.098129153 -1.2648507 1051650
-0.38283762 -0.097988233 -1.2630341 1314563
-0.38701501 -0.097892001 -1.2617936 1511684
-0.39149946 -0.097874761 -1.2615714 1577476
-0.39641029 -0.097963266 -1.2627124 1446147
-0.38270766 -0.092770487 -1.2633574 1248771
-0.38707227 -0.09335269 -1.2619802 1511940
-0.39156014 -0.093336917 -1.261767 1577476
-0.39676362 -0.092752412 -1.2631118 1446147
-0.38315487 -0.087298021 -1.2633288 1314563
-0.38712534 -0.087672435 -1.2621531 1577476
-0.39161673 -0.087658286 -1.2619494 1577476
-0.39630902 -0.087283246 -1.2631155 1446147
-0.38298953 -0.082069241 -1.2635353 1314563
-0.38715866 -0.081986532 -1.262262 1577476
-0.39165246 -0.081973717 -1.2620646 1643268
-0.39661437 -0.082057998 -1.2633623 1511683
-0.38300228 -0.077512428 -1.2635773 1314563
-0.38717043 -0.077434078 -1.2623003 1577476
-0.39166513 -0.077422127 -1.2621053 1643268
-0.39663213 -0.077502698 -1.2634187 1511683
-0.38300148 -0.072952732 -1.2635747 1314819
-0.38716927 -0.072878942 -1.2622967 1577732
-0.39166427 -0.072867729 -1.2621025 1643268
-0.39663193 -0.072943687 -1.2634181 1511683
-0.38298684 -0.068390585 -1.2635264 1380355
-0.38715553 -0.068321593 -1.2622519 1643268
-0.39164984 -0.068310998 -1.2620561 1643268
-0.39661387 -0.068381615 -1.2633606 1511683
-0.38294813 -0.062685095 -1.2633985 1380355
-0.38711926 -0.062622309 -1.2621334 1643268
-0.3916117 -0.062612377 -1.2619331 1643268
-0.3965646 -0.062675439 -1.2632037 1511683
-0.38288966 -0.056977719 -1.2632058 1380355
-0.38706309 -0.056921087 -1.2619503 1643268
-0.39155245 -0.056911707 -1.2617422 1709060
-0.3964881 -0.056966644 -1.26296 1577475
-0.37995714 -0.052486621 -1.2648225 1117443
-0.38282743 -0.052410994 -1.2630005 1380355
-0.38700354 -0.052359354 -1.2617561 1643525
-0.39148954 -0.052350365 -1.2615395 1709060
-0.39640629 -0.052398518 -1.2626995 1577475
-0.3798641 -0.047910854 -1.2645128 1117443
-0.38275182 -0.047844082 -1.2627511 1445891
-0.38693106 -0.04779743 -1.2615198 1643525
-0.39212921 -0.047565214 -1.2614 1643268
-0.39674398 -0.048216566 -1.2625662 1577475
-0.40046889 -0.047919475 -1.2647389 1314563
-0.37804553 -0.043271855 -1.2622436 657670
-0.38268676 -0.044419035 -1.2625363 1314823
-0.38686901 -0.044376157 -1.2613176 1512200
-0.39254621 -0.04437473 -1.261277 1446408
-0.39749739 -0.044419464 -1.2625486 1446407
-0.40032208 -0.044480216 -1.2642753 1314823
-0.32837722 -0.037581805 -1.2624594 197636
-0.37577525 -0.037573792 -1.2622801 197637
-0.3322615 -0.031861641 -1.2613555 66050
-0.33986554 -0.032963533 -1.2600133 3877143
-0.37443161 -0.031867504 -1.261583 197636
-0.40810025 -0.030692767 -1.2601193 2234899
-0.33647877 -0.027282126 -1.2601006 328966
-0.35810027 -0.026146995 -1.2601821 3811351
-0.37246057 -0.026197525 -1.2626175 460809
-0.44199115 -0.026200552 -1.2627634 658189
-0.44733343 -0.026179811 -1.2617637 855825
-0.45302737 -0.026179966 -1.2617712 855825
-0.456444 -0.026180072 -1.2617763 790032
-0.33986273 -0.023869948 -1.260003 394759
-0.34216607 -0.021598514 -1.2601135 263430
-0.4135952 -0.021648226 -1.2630138 921618
-0.41715044 -0.02165534 -1.2634287 921618
-0.42176813 -0.021658359 -1.2636049 855825
-0.42734075 -0.02165194 -1.2632304 921618
-0.43307075 -0.022794127 -1.263324 855824
-0.43770906 -0.022535086 -1.2615852 855825
-0.44041523 -0.023898493 -1.2615098 855825
-0.34448928 -0.019327775 -1.2602953 131587
-0.34724188 -0.017077465 -1.2620353 131587
-0.41301537 -0.018204845 -1.2612431 921618
-0.41722462 -0.017982136 -1.2615856 921618
-0.42277864 -0.018441383 -1.2618582 1053204
-0.42788142 -0.018208023 -1.2614644 1053204
-0.43221337 -0.018198734 -1.2608228 1053204
-0.43549106 -0.019329885 -1.2604328 1053204
-0.35269713 -0.013651706 -1.2611833 263173
-0.35837513 -0.010239286 -1.2611494 131586
-0.41301513 -0.012514859 -1.2612425 592653
-0.41739774 -0.01280295 -1.2615929 658189
-0.42299306 -0.012196205 -1.261916 592396
-0.42788121 -0.012517095 -1.2614635 592653
-0.43221009 -0.012510694 -1.2608131 592652
-0.43664074 -0.010233771 -1.2604702 526602
-0.36337367 -0.0079737147 -1.2627053 131586
-0.36980388 -0.0056892885 -1.261326 131586
-0.41385326 -0.0079806391 -1.2638019 263172
-0.4174391 -0.0079838037 -1.264303 263172
-0.4220596 -0.0079849102 -1.2644782 263172
-0.42758486 -0.0079815891 -1.2639524 197636
-0.43352607 -0.0072182878 -1.2635423 197636
-0.43740928 -0.0068336315 -1.262689 197380
-0.44190031 -0.0062558837 -1.2608787 197637
-0.44795525 -0.0056847101 -1.2603109 329223
-0.45250234 -0.0056847013 -1.260309 329223
-0.45591244 -0.0056846924 -1.260307 329223
-0.44238693 -0.0034205243 -1.2638944 65793
-0.44769821 -0.0034175429 -1.2627927 131586
-0.45339268 -0.0034175317 -1.2627887 131586
-0.45680934 -0.0034175252 -1.2627863 3482383
-0.36986834 -0.33551511 -1.2693572 3416592
-0.36763179 -0.33327359 -1.2695426 3547920
-0.41216764 -0.31397805 -1.2656276 3481613
-0.40973985 -0.28647542 -1.265182 2430984
-0.40989092 -0.28315562 -1.2656484 3087883
-0.37098461 -0.27509928 -1.2653532 788994
-0.41009212 -0.27758288 -1.2662697 3679247
-0.3709991 -0.27168539 -1.2654026 657410
-0.3710086 -0.26712611 -1.265435 657410
-0.3710053 -0.26255751 -1.2654238 657410
-0.37100095 -0.25798827 -1.265409 722946
-0.37099665 -0.25341916 -1.2653942 722946
-0.3709985 -0.24771273 -1.2654005 657410
-0.37101036 -0.24201281 -1.2654409 657410
-0.37102029 -0.23745289 -1.2654748 657410
-0.37104023 -0.23289901 -1.2655429 657410
-0.37106264 -0.22834617 -1.2656194 657410
-0.37107915 -0.22493099 -1.2656757 788994
-0.40750417 -0.1814934 -1.2653279 2497033
-0.40769941 -0.17815411 -1.265934 3219725
-0.40789413 -0.17481172 -1.2665387 3942672
-0.40545449 -0.14276488 -1.2660562 3482638
-0.37777138 -0.11527159 -1.2651449 1249026
-0.4030782 -0.11761118 -1.2657672 3022603
-0.40353969 -0.11317399 -1.2672164 3876368
-0.40062261 -0.098158106 -1.2652245 1183235
-0.38005587 -0.092445873 -1.2651514 1051650
-0.40080163 -0.092492372 -1.2657897 2496777
-0.38012111 -0.086754307 -1.2653685 1182978
-0.4010331 -0.086833209 -1.2665209 2496776
-0.38015372 -0.082195356 -1.2654769 1182978
-0.40118259 -0.082293749 -1.2669929 3219211
-0.37854856 -0.077768251 -1.2677476 920066
-0.38016969 -0.077632219 -1.2655301 920322
-0.40126333 -0.07773757 -1.2672479 3810573
-0.37854937 -0.073193826 -1.2677505 920066
-0.38016883 -0.07306546 -1.2655272 986114
-0.40126872 -0.073165819 -1.2672651 3810574
-0.37851822 -0.067470074 -1.2676461 920066
-0.38014421 -0.067352913 -1.2654452 986114
-0.40117297 -0.067433842 -1.2669625 2956554
-0.37845024 -0.061741158 -1.2674184 854530
-0.38009393 -0.061636873 -1.265278 1117442
-0.40096855 -0.061687596 -1.2663171 2562824
-0.37837055 -0.057155725 -1.2671516 854530
-0.38003403 -0.057062201 -1.2650785 1117443
-0.40077561 -0.05709061 -1.2657076 2628104
-0.37826729 -0.052568939 -1.2668056 788738
-0.40063709 -0.05250524 -1.2652702 1314563
-0.37814283 -0.047981963 -1.2663889 854530
-0.32558182 -0.0422685 -1.2663522 197636
-0.37708682 -0.043421581 -1.2666812 394498
-0.32818651 -0.037735719 -1.2675878 460552
-0.37582767 -0.038839754 -1.2662868 0
-0.33295074 -0.030892326 -1.2683123 197636
-0.37416148 -0.030894056 -1.2683834 65793
-0.33490324 -0.028575351 -1.2670418 395016
-0.3369225 -0.026268525 -1.2660394 197636
-0.37338123 -0.028545955 -1.2657384 65793
-0.43763614 -0.026281131 -1.266647 1117966
-0.44314396 -0.028553106 -1.2660555 2103311
-0.44757468 -0.028544296 -1.2656648 2235154
-0.45214403 -0.028544437 -1.265671 2234898
-0.45557112 -0.028544549 -1.265676 2234898
-0.33917615 -0.023982143 -1.2659253 197636
-0.34158865 -0.021706294 -1.2664016 197636
-0.414536 -0.023981415 -1.2658868 724239
-0.41821742 -0.023996066 -1.2666602 2234642
-0.42284876 -0.023999522 -1.2668426 2234642
-0.42718345 -0.023986243 -1.2661417 724238
-0.43030256 -0.023969101 -1.2652369 790031
-0.34416401 -0.019437827 -1.2674714 197636
-0.35044643 -0.014839746 -1.2653844 197636
-0.35823429 -0.010300663 -1.2687091 0
-0.36968023 -0.0057226024 -1.2687117 0
-0.41670853 -0.0057240073 -1.2690232 2430730
-0.42491159 -0.0057265693 -1.2695912 3284749
-0.42782429 -0.0057195816 -1.2680418 2430729
-0.43180823 -0.0057117525 -1.2663062 257
-0.439089 -0.0034303893 -1.2675396 1642502
-0.44302022 -0.0011447548 -1.2689714 3284748
-0.4475925 -0.0011447376 -1.2689524 3284748
-0.45330763 -0.0011447159 -1.2689284 3350797
-0.45673665 -0.0011447031 -1.2689141 3416590
-0.3667756 -0.3253839 -1.2745268 3745551
-0.36907598 -0.30468881 -1.2745298 3745295
-0.37147933 -0.21506691 -1.274886 2497289
-0.37139845 -0.21157065 -1.2746084 2497289
-0.37126273 -0.20689568 -1.2741427 3942672
-0.37115616 -0.2033889 -1.2737769 3942672
-0.37368202 -0.16212046 -1.2745535 2562825
-0.37348205 -0.1585864 -1.2738715 3285516
-0.3760592 -0.1322532 -1.2748166 2694409
-0.37567148 -0.12752225 -1.2735022 3088652
-0.37833542 -0.10809596 -1.2747363 2628361
-0.37797046 -0.10339645 -1.2735065 2497033
-0.3776772 -0.099872053 -1.2725185 3941903
-0.37759632 -0.051646896 -1.272246 3876110
-0.37785637 -0.048236668 -1.2731222 3153675
-0.3262378 -0.04135542 -1.2733762 328966
-0.37707385 -0.042535357 -1.2743597 1051139
-0.32954431 -0.035595365 -1.2728322 460552
-0.37552533 -0.036749259 -1.2730068 0
-0.3315753 -0.033272251 -1.2718139 460552
-0.37481552 -0.033240508 -1.2706006 0
-0.3367539 -0.026434597 -1.2740434 197636
-0.37299007 -0.027545292 -1.2721934 131586
-0.44212908 -0.028709672 -1.2729976 3482385
-0.33901858 -0.024133518 -1.2739158 197636
-0.34142134 -0.021841761 -1.2743051 197636
-0.34741476 -0.017198745 -1.270998 0
-0.35224724 -0.013769828 -1.2718949 66050
-0.36324248 -0.0080211246 -1.2702131 0
