# .PCD v0.7 - Point Cloud Data file format
VERSION 0.7
FIELDS x y z rgb
SIZE 4 4 4 4
TYPE F F F U
COUNT 1 1 1 1
WIDTH 1098
HEIGHT 1
VIEWPOINT 0 0 0 1 0 0 0
POINTS 1098
DATA ascii
-0.058082595 -0.21296942 -1.1923146 11644327
-0.062385034 -0.21296951 -1.1923151 13814978
-0.067763083 -0.21296962 -1.1923157 13486270
-0.073150538 -0.21299672 -1.1924675 10726313
-0.076505981 -0.21335471 -1.1944716 6847105
-0.22365621 -0.21145052 -1.1938624 6188918
-0.22743255 -0.21323225 -1.1925808 11251627
-0.23233482 -0.21297376 -1.1923389 13551806
-0.23771304 -0.21297388 -1.1923395 13749185
-0.24309132 -0.212974 -1.1923401 11644582
-0.24739391 -0.21297407 -1.1923406 12959668
-0.25277215 -0.21297419 -1.1923414 10594213
-0.25815043 -0.21297431 -1.192342 13420478
-0.26245308 -0.21297441 -1.1923425 13486013
-0.26738739 -0.21274857 -1.1922826 12960186
-0.27257803 -0.21320064 -1.1924047 13025721
-0.27751237 -0.2129748 -1.1923449 12762807
-0.28244594 -0.21274897 -1.1922848 12631478
-0.28763816 -0.21320105 -1.192407 12762807
-0.29257169 -0.2129752 -1.192347 12697015
-0.2968744 -0.21297532 -1.1923478 12697271
-0.30225277 -0.21297546 -1.1923485 12565686
-0.30655545 -0.21297559 -1.1923492 10790050
0.0064452612 -0.20732667 -1.1907914 10131088
0.0021483521 -0.20732677 -1.190792 11513515
-0.0021485614 -0.20732683 -1.1907924 11447722
-0.0075197089 -0.20732695 -1.1907932 11513514
-0.012890861 -0.20732708 -1.1907938 11513514
-0.017187787 -0.20732714 -1.1907943 11513514
-0.02255895 -0.20732726 -1.1907948 11645100
-0.02793012 -0.20732738 -1.1907957 11645100
-0.032227058 -0.20732747 -1.190796 11579308
-0.037598237 -0.20732759 -1.1907967 11710892
-0.042969424 -0.20732771 -1.1907973 11579307
-0.047266375 -0.20732778 -1.1907978 9016984
-0.05263757 -0.20732789 -1.1907985 10855583
-0.058008771 -0.20732801 -1.1907991 10263706
-0.062305737 -0.20732808 -1.1907996 11645100
-0.067676954 -0.2073282 -1.1908003 11973807
-0.073055193 -0.20734797 -1.1909137 10199971
-0.077304967 -0.20736499 -1.1934879 6715776
-0.22345778 -0.20695932 -1.1928073 6188918
-0.22774246 -0.20733221 -1.1908232 11054506
-0.23203957 -0.2073323 -1.1908239 11973807
-0.23741099 -0.20733243 -1.1908245 11710892
-0.24278241 -0.20733254 -1.1908251 10132119
-0.24707955 -0.20733261 -1.1908257 10986913
-0.25245097 -0.20733273 -1.1908263 9673627
-0.25782239 -0.20733285 -1.1908269 11710893
-0.26211956 -0.20733292 -1.1908274 11776429
-0.26749101 -0.20733303 -1.1908281 11645100
-0.27286246 -0.20733315 -1.1908287 11776428
-0.27715963 -0.20733325 -1.1908293 11710636
-0.28253108 -0.20733339 -1.1908299 11579051
-0.28790259 -0.20733351 -1.1908307 11579307
-0.29219979 -0.20733361 -1.1908313 11513515
-0.29757133 -0.20733374 -1.1908323 11513515
-0.30294284 -0.20733388 -1.190833 11513515
-0.30616578 -0.207334 -1.1908334 10790307
-0.077437192 -0.20219496 -1.1922058 6649727
-0.080829218 -0.20153391 -1.1946644 6452348
-0.2188307 -0.20158286 -1.1949545 5794160
-0.22262135 -0.20218931 -1.1921728 6057332
-0.077404842 -0.19780992 -1.1917088 6452348
-0.080802783 -0.19823569 -1.1942737 6254969
-0.21876413 -0.19828841 -1.194591 5596781
-0.22253434 -0.19780952 -1.1917061 5859696
0.0064449506 -0.19120303 -1.1907339 9078400
0.0021482457 -0.19120288 -1.1907327 10132119
-0.0021484513 -0.19120267 -1.1907316 10066326
-0.0075193108 -0.19120245 -1.1907302 10131862
-0.012890157 -0.19120222 -1.1907288 10132119
-0.017186826 -0.19120203 -1.1907277 10131863
-0.022557648 -0.19120181 -1.1907262 10329240
-0.02792846 -0.19120157 -1.1907247 10329240
-0.032225102 -0.19120139 -1.1907237 10263447
-0.037595887 -0.19120115 -1.1907221 10328984
-0.04296666 -0.19120093 -1.1907208 10263448
-0.047263272 -0.19120075 -1.1907196 7963782
-0.052634027 -0.19120051 -1.1907182 9539981
-0.058004759 -0.19120029 -1.1907167 9013639
-0.062301338 -0.19120011 -1.1907156 10263448
-0.067672059 -0.19119988 -1.1907142 10526618
-0.073254749 -0.19183651 -1.1906672 8818832
-0.077498876 -0.19266796 -1.1931565 6188918
-0.22275795 -0.19262724 -1.1929036 5596266
-0.22771265 -0.19119236 -1.1906674 9804182
-0.23200889 -0.19119218 -1.1906662 10526618
-0.23737919 -0.19119196 -1.1906649 10263704
-0.24274947 -0.19119172 -1.1906635 8816260
-0.24704567 -0.19119154 -1.1906623 9671310
-0.2524159 -0.1911913 -1.1906608 8489353
-0.25778615 -0.19119109 -1.1906594 10263448
-0.26208231 -0.19119088 -1.1906583 10263448
-0.26745254 -0.19119067 -1.1906568 10197911
-0.27282277 -0.19119045 -1.1906555 10329240
-0.27711889 -0.19119024 -1.1906543 10329240
-0.28248909 -0.19119002 -1.1906528 10132119
-0.28785926 -0.1911898 -1.1906514 10197655
-0.29215539 -0.19118962 -1.1906502 10132119
-0.2975255 -0.19118936 -1.1906488 10131863
-0.30289567 -0.19118915 -1.1906474 10131863
-0.30611774 -0.19118902 -1.1906466 9606033
0.0064509031 -0.18707895 -1.1918337 8617593
0.0021502296 -0.18707877 -1.1918325 10197396
-0.0021504359 -0.18707861 -1.1918315 10066067
-0.0075262557 -0.18707837 -1.19183 10066067
-0.012902063 -0.18707818 -1.1918286 10131603
-0.0172027 -0.18707798 -1.1918274 10131603
-0.022578485 -0.18707776 -1.191826 10262932
-0.027954254 -0.18707754 -1.1918247 10263189
-0.032254864 -0.18707734 -1.1918234 10263189
-0.03763061 -0.18707712 -1.1918221 10591896
-0.043006346 -0.1870769 -1.1918206 10394774
-0.047306921 -0.18707672 -1.1918194 7831681
-0.052682634 -0.18707649 -1.1918179 9868173
-0.058058336 -0.18707627 -1.1918166 9144710
-0.062358882 -0.18707609 -1.1918154 10657689
-0.067734562 -0.18707585 -1.1918141 10526103
-0.073118597 -0.18709674 -1.191947 8686731
-0.076460652 -0.18738192 -1.1937639 5793903
-0.22392905 -0.18732548 -1.1934041 5267044
-0.22792295 -0.18706849 -1.1917671 9737874
-0.23222317 -0.18706831 -1.1917659 10460567
-0.23759842 -0.1870681 -1.1917645 10591896
-0.24297364 -0.1870679 -1.191763 8947331
-0.24727383 -0.1870677 -1.191762 9999502
-0.25264904 -0.18706749 -1.1917605 8423045
-0.25802422 -0.18706726 -1.1917591 10526104
-0.26232436 -0.18706709 -1.1917579 10591896
-0.26769954 -0.18706684 -1.1917565 10328982
-0.27307472 -0.18706661 -1.1917551 10328981
-0.27737483 -0.18706645 -1.1917539 10197396
-0.28274998 -0.18706621 -1.1917526 10131603
-0.2881251 -0.18706599 -1.191751 10131604
-0.29242519 -0.18706581 -1.1917499 10066067
-0.29735643 -0.18727198 -1.1916935 10066067
-0.30254424 -0.18685901 -1.1918021 10131603
-0.30640045 -0.18706524 -1.1917462 8882310
0.0064568673 -0.18294728 -1.1929355 8420470
0.0021522176 -0.18294708 -1.1929344 10394259
-0.0021524236 -0.18294692 -1.1929333 10394259
-0.0075332136 -0.1829467 -1.1929318 10460052
-0.012913992 -0.18294647 -1.1929303 10460052
-0.017218603 -0.18294632 -1.1929294 10525588
-0.022599354 -0.18294609 -1.1929278 10525844
-0.027980097 -0.18294585 -1.1929263 10722966
-0.032284681 -0.18294568 -1.1929252 10788759
-0.037665401 -0.18294547 -1.1929237 11051673
-0.043046106 -0.18294525 -1.1929224 10789015
-0.047350656 -0.18294506 -1.1929212 7765629
-0.052731335 -0.18294485 -1.1929197 10985621
-0.058112003 -0.18294464 -1.1929183 9604743
-0.062416535 -0.18294445 -1.1929171 11643552
-0.067797169 -0.18294422 -1.1929157 11643294
-0.073187947 -0.18296899 -1.1930771 8883337
-0.076516435 -0.1842858 -1.1946348 5596266
-0.22311997 -0.18431641 -1.1948332 4937822
-0.22710752 -0.18297769 -1.193134 8817029
-0.23243783 -0.18293685 -1.1928675 11577502
-0.23737653 -0.18314342 -1.1928113 11643551
-0.24256371 -0.18272968 -1.19292 9933450
-0.2475024 -0.18293622 -1.1928636 11051414
-0.25244036 -0.1831428 -1.1928072 8225664
-0.25762892 -0.18272905 -1.1929162 10920344
-0.26256689 -0.18293563 -1.1928596 11051673
-0.26687098 -0.18293545 -1.1928585 10788502
-0.27225113 -0.18293524 -1.1928569 10657174
-0.27763125 -0.182935 -1.1928556 10525588
-0.28193533 -0.18293485 -1.1928544 10525588
-0.28731543 -0.1829346 -1.192853 10459796
-0.29269552 -0.18293437 -1.1928515 10460052
-0.29699957 -0.18293422 -1.1928504 10394259
-0.30237961 -0.18293397 -1.1928489 10196882
-0.30668366 -0.18293381 -1.1928477 8487552
0.0064643379 -0.17777151 -1.1943158 9077626
0.0021547079 -0.17777133 -1.1943148 12169635
-0.002154914 -0.17777114 -1.1943134 12301479
-0.0075419289 -0.17777094 -1.194312 12301221
-0.012928932 -0.17777073 -1.1943107 12564392
-0.017238526 -0.17777057 -1.1943096 12959149
-0.022625504 -0.17777033 -1.1943079 12695977
-0.028012469 -0.17777014 -1.1943065 12235427
-0.032322034 -0.17776994 -1.1943055 12235427
-0.037708975 -0.17776974 -1.194304 12761515
-0.043095905 -0.17776953 -1.1943026 12433063
-0.04740544 -0.17776935 -1.1943015 7830649
-0.052792348 -0.17776914 -1.1942999 11774619
-0.058179244 -0.17776893 -1.1942985 9341570
-0.06248875 -0.17776875 -1.1942974 11972256
-0.067255348 -0.17806458 -1.1942171 12432806
-0.072191626 -0.17778483 -1.194404 10789528
-0.22760755 -0.17804524 -1.1943442 10460307
-0.23270677 -0.17776136 -1.1942478 12498855
-0.2370159 -0.1777612 -1.1942465 12103841
-0.24240234 -0.17776097 -1.1942451 10130827
-0.24778876 -0.17776076 -1.1942437 11840668
-0.25209787 -0.17776059 -1.1942425 7830392
-0.25748429 -0.17776039 -1.194241 12433064
-0.26287067 -0.17776014 -1.1942396 12629929
-0.26717976 -0.17775999 -1.1942385 12169635
-0.27256608 -0.17775977 -1.194237 12169891
-0.27795246 -0.17775954 -1.1942354 12761514
-0.28226152 -0.17775936 -1.1942345 12893357
-0.28764784 -0.17775917 -1.1942331 12498343
-0.29303417 -0.17775898 -1.1942316 12235428
-0.29734319 -0.17775877 -1.1942304 12170150
-0.30244255 -0.17801768 -1.19416 11643550
-0.30653512 -0.17724022 -1.1943661 9342087
-0.14872585 -0.13040471 -1.1946681 7374479
-0.15199089 -0.1304318 -1.1949164 7505807
-0.13789086 -0.12604101 -1.1941679 7373965
-0.14247282 -0.12668277 -1.1934425 7571601
-0.14735788 -0.12692273 -1.1923232 7703444
-0.15274616 -0.12693043 -1.1923951 7769237
-0.15722121 -0.12706973 -1.1937038 7637651
-0.16157727 -0.12602997 -1.1940632 7571601
-0.12716587 -0.12177762 -1.1946163 13486522
-0.13243735 -0.12274768 -1.1935667 10331297
-0.13765322 -0.12259781 -1.1921098 9608349
-0.14244504 -0.12267933 -1.1908152 9543071
-0.15681335 -0.12244323 -1.1906071 9871778
-0.16239682 -0.12260389 -1.1921686 10003363
-0.16799402 -0.12276493 -1.1937342 10857641
-0.17241754 -0.12176962 -1.1945379 14210245
-0.12716539 -0.11746646 -1.1946117 15393231
-0.13239785 -0.11732868 -1.1932106 13222067
-0.13761891 -0.11719123 -1.1918126 11446948
-0.14178674 -0.11815575 -1.1906977 11184291
-0.15677972 -0.11812143 -1.190352 11447206
-0.16263124 -0.11747012 -1.1919168 12104877
-0.16793802 -0.11734106 -1.1933364 14142911
-0.17241709 -0.11745889 -1.1945347 16314331
-0.12716475 -0.11207754 -1.1946058 14735301
-0.13239723 -0.11194611 -1.1932049 13156275
-0.13761824 -0.11181494 -1.1918068 11644582
-0.14178605 -0.1127845 -1.1906921 10855584
-0.1567792 -0.11275189 -1.1903479 11052963
-0.16203305 -0.11227046 -1.191753 12104877
-0.16793747 -0.11195806 -1.1933324 13945789
-0.17241652 -0.1120705 -1.1945307 15655888
-0.12716426 -0.10776643 -1.1946011 10920602
-0.13239671 -0.10764007 -1.1932002 10723223
-0.13761771 -0.10751395 -1.1918023 10000018
-0.14178538 -0.10741328 -1.1906862 9540239
-0.15677866 -0.1073824 -1.190344 9803155
-0.16235133 -0.10751688 -1.1918348 10460569
-0.16793703 -0.1076517 -1.1933291 11446689
-0.17241608 -0.10775982 -1.1945277 11775909
-0.12716362 -0.10237762 -1.1945952 14208700
-0.13239606 -0.10225756 -1.1931944 12695722
-0.13740851 -0.10257254 -1.1918528 10854810
-0.14178483 -0.10311636 -1.1906817 10000531
-0.15677825 -0.10308683 -1.1903408 10197655
-0.16266972 -0.10276227 -1.1919166 11446689
-0.16793647 -0.10226878 -1.1933252 13616566
-0.17241554 -0.10237149 -1.1945238 15064008
-0.12716299 -0.096988842 -1.1945894 9343886
-0.13239543 -0.096875109 -1.1931885 8752523
-0.13782503 -0.097402066 -1.1917355 8818061
-0.14178416 -0.09774524 -1.1906759 8884110
-0.15677772 -0.097717397 -1.1903368 9147282
-0.1620713 -0.097564712 -1.1917528 9344147
-0.16793591 -0.09688589 -1.1933213 9475988
-0.17241499 -0.096983224 -1.1945201 10133146
-0.12716249 -0.092677854 -1.1945845 14670024
-0.13239491 -0.092569195 -1.1931839 12367532
-0.13761584 -0.092460752 -1.1917861 11184291
-0.14178346 -0.092374168 -1.1906701 10724256
-0.1567772 -0.092348002 -1.1903329 10790306
-0.16234979 -0.09246365 -1.1918236 11644841
-0.16793549 -0.092579618 -1.1933182 13157303
-0.17241454 -0.092672616 -1.1945171 15459796
-0.12716186 -0.087289184 -1.1945786 15656404
-0.13213298 -0.087460935 -1.1932483 13090481
-0.13761532 -0.088159911 -1.1917815 11578533
-0.14178292 -0.088077359 -1.1906656 10855584
-0.15677679 -0.088052511 -1.1903297 10921634
-0.16234937 -0.088162787 -1.1918206 12104877
-0.16793495 -0.087196797 -1.1933144 13879740
-0.17241399 -0.087284394 -1.1945133 16511969
-0.12716123 -0.081900559 -1.1945728 15129803
-0.13269229 -0.082260169 -1.1930927 12301482
-0.13761465 -0.082783908 -1.1917758 11249827
-0.14178224 -0.082706392 -1.1906599 10789792
-0.15677626 -0.082683183 -1.1903257 10921378
-0.16234884 -0.082786746 -1.1918166 11776170
-0.16793443 -0.081814021 -1.1933107 13222582
-0.17241344 -0.081896208 -1.1945094 15985367
-0.12716074 -0.077589691 -1.194568 15064009
-0.13239308 -0.077498727 -1.1931676 12367275
-0.13761397 -0.077407949 -1.1917698 11052705
-0.14178155 -0.077335477 -1.190654 10855584
-0.15677574 -0.077313885 -1.1903218 10986914
-0.16234832 -0.077410728 -1.1918129 11644584
-0.16793399 -0.077507824 -1.1933076 13288374
-0.17241301 -0.07758569 -1.1945064 15985110
-0.1271601 -0.072201163 -1.1945621 15327694
-0.13239256 -0.073192947 -1.1931628 12301482
-0.13761343 -0.073107213 -1.1917652 11184033
-0.141781 -0.073038779 -1.1906495 10921377
-0.15677534 -0.073018476 -1.1903186 10987427
-0.1623479 -0.073109947 -1.1918095 11644584
-0.16793355 -0.073201649 -1.1933045 13288119
-0.17241246 -0.072197564 -1.1945026 16248796
-0.12715949 -0.066812687 -1.1945562 15853781
-0.13239191 -0.067810789 -1.1931568 12696239
-0.13761276 -0.067731351 -1.1917593 10986912
-0.14178032 -0.067667954 -1.1906438 10723999
-0.15677482 -0.067649245 -1.1903147 10855842
-0.16234738 -0.067734003 -1.191806 11447462
-0.16793303 -0.067818955 -1.1933007 13814204
-0.1724119 -0.066809475 -1.1944988 16643811
-0.12715897 -0.062501937 -1.1945515 15524816
-0.13239124 -0.062428664 -1.1931509 12301739
-0.13761207 -0.062355544 -1.1917535 10921120
-0.14177962 -0.062297173 -1.1906379 10723998
-0.1567743 -0.062280051 -1.1903107 10855585
-0.16234688 -0.062358085 -1.1918021 11447462
-0.1679325 -0.062436305 -1.1932969 13288375
-0.17241149 -0.062499024 -1.1944957 16314846
-0.12715848 -0.058191232 -1.1945468 15261131
-0.13239074 -0.058123011 -1.1931462 12170153
-0.13761154 -0.058054931 -1.1917487 10986912
-0.14177907 -0.058000587 -1.1906332 10658463
-0.15677388 -0.057984728 -1.1903076 10855842
-0.16234645 -0.058057379 -1.191799 11447462
-0.16793208 -0.058130205 -1.1932939 13156533
-0.17241104 -0.058188595 -1.1944927 16116952
-0.12715784 -0.052802902 -1.194541 15261903
-0.13239007 -0.052740991 -1.1931404 12038824
-0.13761085 -0.052679215 -1.1917429 10921119
-0.14177838 -0.052629903 -1.1906273 10658206
-0.1567734 -0.052615602 -1.1903039 10855585
-0.16234593 -0.052681528 -1.1917952 11447206
-0.16793154 -0.052747607 -1.1932901 13025204
-0.17241047 -0.052800596 -1.1944889 16117212
-0.12715723 -0.047414608 -1.194535 15064523
-0.13238941 -0.04735902 -1.1931344 12038824
-0.13761018 -0.04730355 -1.1917369 11052705
-0.14177766 -0.047259275 -1.1906215 10658463
-0.1567729 -0.047246516 -1.1903001 10855585
-0.16234542 -0.047305714 -1.1917914 11512999
-0.16793101 -0.047365047 -1.1932863 12959411
-0.17240994 -0.04741263 -1.1944849 15919832
-0.12715672 -0.043104023 -1.1945304 11907239
-0.1323889 -0.043053482 -1.1931299 10131861
-0.13760963 -0.04300306 -1.1917324 9803154
-0.14177711 -0.042962808 -1.1906168 9934998
-0.15788551 -0.042962015 -1.1905949 10198169
-0.16234501 -0.043005083 -1.1917886 10197913
-0.16793057 -0.043059021 -1.1932833 10855583
-0.17240949 -0.043102279 -1.1944821 12696755
-0.12319846 -0.35554868 -1.1979606 10789792
-0.1261452 -0.35687202 -1.1951541 8682610
-0.17356323 -0.35682854 -1.1950084 8219995
-0.1772687 -0.35561582 -1.1981869 11645100
-0.12319794 -0.35230511 -1.1979556 14671581
-0.12614471 -0.35255799 -1.1951494 14801868
-0.17356277 -0.35251546 -1.1950053 15722710
-0.17726862 -0.35237297 -1.1981863 15592939
-0.12300118 -0.34738809 -1.1981438 15329769
-0.1261441 -0.34716547 -1.1951435 15855073
-0.1735622 -0.34712419 -1.1950014 16710891
-0.17752223 -0.34747359 -1.1984392 16645629
-0.12339228 -0.34208566 -1.1977437 15461355
-0.12614359 -0.34285152 -1.1951387 15788763
-0.17701466 -0.34213904 -1.1979309 16711422
-0.12319551 -0.33716884 -1.197932 15395562
-0.12614296 -0.33745909 -1.1951329 15854555
-0.17726825 -0.33723965 -1.1981838 16645629
-0.12319482 -0.33284423 -1.1979252 15395562
-0.12614234 -0.33206677 -1.195127 15986657
-0.17752182 -0.33233708 -1.1984365 16645629
-0.12319394 -0.32743859 -1.1979166 15395561
-0.12614183 -0.32775289 -1.1951222 15789019
-0.17701426 -0.3270089 -1.1979282 16645629
-0.12319309 -0.32203311 -1.1979084 15395560
-0.12614124 -0.32236063 -1.1951164 15657432
-0.17726783 -0.32210636 -1.1981809 16645629
-0.12319238 -0.3177087 -1.1979016 15329769
-0.12614061 -0.31696844 -1.1951104 15722712
-0.1772677 -0.31778258 -1.1981801 16645629
-0.12299562 -0.31278649 -1.1980898 15263976
-0.1261401 -0.31265467 -1.1951058 15788764
-0.17752129 -0.3128759 -1.1984329 16579836
-0.12338673 -0.30749583 -1.1976898 15198183
-0.12613948 -0.30726257 -1.1950998 15591644
-0.17701373 -0.30755597 -1.1979245 16382714
-0.12318996 -0.30257374 -1.197878 10002079
-0.12613885 -0.30187052 -1.1950939 9672852
-0.1772673 -0.30264935 -1.1981773 11317939
-0.1229932 -0.29764923 -1.1980662 13750476
-0.12613836 -0.29755688 -1.1950891 14275008
-0.17752089 -0.29773951 -1.1984301 14868957
-0.1233843 -0.29236376 -1.1976662 12500152
-0.12613773 -0.29216495 -1.1950833 12499116
-0.17701331 -0.29242605 -1.1979218 14144976
-0.12318753 -0.28743941 -1.1978543 14211027
-0.12613712 -0.28677303 -1.1950774 14933196
-0.1772669 -0.28751621 -1.1981745 14934493
-0.12299079 -0.28251261 -1.1980426 15066596
-0.12613662 -0.28245956 -1.1950727 15591895
-0.17752045 -0.2826032 -1.1984273 16447992
-0.12338186 -0.27723229 -1.1976426 12632767
-0.12613611 -0.27814609 -1.195068 14999760
-0.17701289 -0.27729616 -1.1979189 13948370
-0.12433271 -0.27353173 -1.1984683 3949382
-0.12719125 -0.27273613 -1.1968811 4278860
-0.1322912 -0.27170378 -1.1961348 4015947
-0.13803254 -0.27067336 -1.1953943 4148048
-0.16174556 -0.27065367 -1.1953073 4345427
-0.16767722 -0.27169219 -1.1960839 4345169
-0.17297931 -0.27274826 -1.1969352 4871255
-0.1762827 -0.27361655 -1.19884 4410189
-0.12870876 -0.26931477 -1.1989475 3686725
-0.13195048 -0.2682268 -1.1989219 3884104
-0.13754354 -0.26724935 -1.1981797 4081740
-0.1424796 -0.26768854 -1.1965159 4148048
-0.14724672 -0.26698554 -1.1957831 4411219
-0.15354389 -0.26717305 -1.1958185 4411476
-0.1575895 -0.26768506 -1.1965004 4279634
-0.16214378 -0.26699442 -1.1982502 4213582
-0.16715533 -0.26835573 -1.1985313 4213326
-0.17199159 -0.26934516 -1.1990829 4081483
-0.13961996 -0.26192254 -1.1997669 4078905
-0.14275336 -0.26279604 -1.1988152 4079678
-0.14694819 -0.26256201 -1.1977471 4013886
-0.15232602 -0.26251787 -1.1975458 4145472
-0.15791325 -0.2628274 -1.1989583 4277057
-0.16129363 -0.26088417 -1.1999691 4407612
-0.13961214 -0.25757879 -1.1996996 4341819
-0.14275806 -0.25739741 -1.1988547 4210234
-0.14695132 -0.25716504 -1.1977725 4078649
-0.15232965 -0.25712249 -1.1975745 3881527
-0.15792048 -0.25743142 -1.1990132 4341820
-0.16128658 -0.2576254 -1.1999166 4538942
-0.13960432 -0.25323558 -1.1996324 4276027
-0.14275281 -0.25306204 -1.1988103 4144442
-0.14695074 -0.25284195 -1.1977677 4012856
-0.15232921 -0.25280041 -1.1975709 3815735
-0.15791331 -0.25309336 -1.1989589 4276027
-0.16127484 -0.25219476 -1.1998292 4538942
-0.13959813 -0.24781358 -1.1995794 4407356
-0.14275151 -0.24765252 -1.1987995 4276285
-0.14694999 -0.24743807 -1.1977617 4144443
-0.15232874 -0.2473979 -1.1975672 4012857
-0.15791158 -0.24768269 -1.1989459 4407613
-0.16126736 -0.24677137 -1.1997736 4538942
-0.13959743 -0.24240154 -1.1995732 4078648
-0.14275081 -0.24224404 -1.1987936 4012856
-0.14694925 -0.24203429 -1.1977556 4078906
-0.15232825 -0.24199545 -1.1975635 3947320
-0.15791109 -0.242274 -1.1989419 4012857
-0.16126697 -0.24244145 -1.1997707 4275770
-0.13959686 -0.23807199 -1.1995683 3815734
-0.14275023 -0.23791729 -1.1987889 3749685
-0.14694867 -0.2377113 -1.1977509 3749685
-0.15232788 -0.23767351 -1.1975604 3683893
-0.15791069 -0.23794708 -1.1989391 3815734
-0.16126655 -0.23811153 -1.1997676 4012856
-0.13959616 -0.23266011 -1.1995623 3749685
-0.14274952 -0.2325089 -1.1987828 3749686
-0.14694794 -0.2323076 -1.1977448 3881272
-0.15232739 -0.23227109 -1.1975566 3749943
-0.1579102 -0.23253846 -1.1989352 3815478
-0.16126606 -0.23269917 -1.1997638 3947063
0.0064817886 -0.22578597 -1.19754 13420480
0.0021605322 -0.22578666 -1.1975436 16777215
-0.0021607499 -0.22578731 -1.1975472 16777215
-0.0075623887 -0.22578813 -1.1975514 16777215
-0.012964064 -0.22578895 -1.1975558 16777215
-0.017285433 -0.22578961 -1.1975594 16777215
-0.022687182 -0.22579043 -1.1975636 16777215
-0.028088968 -0.22579125 -1.1975681 16777215
-0.032410428 -0.22579192 -1.1975715 16777215
-0.037812281 -0.22579272 -1.1975759 16777215
-0.04321418 -0.22579354 -1.1975802 16777215
-0.047535729 -0.22579421 -1.1975837 13094604
-0.051857296 -0.22579485 -1.1975871 16777215
-0.057259295 -0.22579567 -1.1975914 15724009
-0.062661335 -0.22579649 -1.1975958 16777215
-0.066982999 -0.22579715 -1.1975994 16777215
-0.072404876 -0.22585785 -1.1979213 14278109
-0.137863 -0.22703068 -1.19955 3749685
-0.14273413 -0.22707731 -1.1986533 3749942
-0.14694571 -0.22690167 -1.1977267 3749943
-0.15232524 -0.22686629 -1.1975399 3749686
-0.15788893 -0.22710021 -1.1987741 3815479
-0.16232824 -0.22725929 -1.1996138 3881271
-0.22693713 -0.22585654 -1.1979144 13291215
-0.23230754 -0.22582443 -1.197744 16777215
-0.23771106 -0.2258254 -1.1977491 16777214
-0.24203388 -0.22582614 -1.1977532 15328993
-0.24743746 -0.2258271 -1.1977582 16777215
-0.25284111 -0.22582805 -1.1977632 13160399
-0.25716403 -0.22582881 -1.1977673 16777215
-0.26256776 -0.22582977 -1.1977724 16777215
-0.26797146 -0.2258307 -1.1977773 16777215
-0.27229452 -0.22583148 -1.1977813 16777215
-0.27769837 -0.22583242 -1.1977865 16777215
-0.28310224 -0.22583336 -1.1977913 16777215
-0.2874254 -0.22583413 -1.1977955 16777215
-0.2928293 -0.22583508 -1.1978005 16777215
-0.29823336 -0.22583604 -1.1978056 16777215
-0.30255663 -0.22583681 -1.1978097 16777215
-0.30687991 -0.22583759 -1.1978137 13025721
0.006468283 -0.22315934 -1.1950446 13551290
0.0021560255 -0.22315946 -1.1950452 16777214
-0.0021562355 -0.22315955 -1.1950457 16777215
-0.0075465669 -0.22315967 -1.1950463 16777215
-0.012936903 -0.22315979 -1.1950469 16777215
-0.017249178 -0.22315988 -1.1950475 16777215
-0.022639526 -0.22316001 -1.1950482 16777215
-0.02802988 -0.22316015 -1.1950488 16777215
-0.032342166 -0.22316024 -1.1950493 16777215
-0.03773253 -0.22316034 -1.19505 16777215
-0.043122903 -0.22316048 -1.1950507 16776955
-0.047435202 -0.22316056 -1.1950512 12304571
-0.052825585 -0.2231607 -1.1950518 16776689
-0.058215968 -0.2231608 -1.1950524 14209992
-0.062528282 -0.22316092 -1.195053 16711160
-0.066840604 -0.22316101 -1.1950535 16777215
-0.072243586 -0.22319889 -1.1952564 14343643
-0.077461034 -0.22229385 -1.1981252 6780539
-0.13312979 -0.2229653 -1.1998008 3749684
-0.13736796 -0.22281806 -1.1990086 3683892
-0.14266124 -0.22263825 -1.1980408 3618356
-0.14689146 -0.22249758 -1.197284 3552564
-0.15228263 -0.22248328 -1.1972075 3552564
-0.15780315 -0.22265349 -1.198123 3684149
-0.16223614 -0.22280407 -1.1989331 3815478
-0.16630107 -0.22257622 -1.199649 3881270
-0.22294205 -0.22222225 -1.1977397 6187889
-0.22698277 -0.22266984 -1.1953101 12239038
-0.23286921 -0.22316623 -1.1950815 16777215
-0.23718239 -0.22316697 -1.1950854 16776955
-0.24257392 -0.22316791 -1.1950904 15065816
-0.2479655 -0.22316885 -1.1950955 16777204
-0.2522788 -0.2231696 -1.1950995 12304827
-0.25767043 -0.22317052 -1.1951045 16645627
-0.26306215 -0.22317147 -1.1951096 16777215
-0.26737553 -0.22317222 -1.1951135 16777215
-0.27276731 -0.22317314 -1.1951185 16777215
-0.27815911 -0.22317408 -1.1951234 16777215
-0.28247261 -0.22317484 -1.1951275 16777215
-0.28678614 -0.22317559 -1.1951315 16777215
-0.29217806 -0.22317652 -1.1951365 16777215
-0.29757008 -0.22317746 -1.1951416 16777215
-0.3018837 -0.22317822 -1.1951456 16777215
-0.30619735 -0.22317897 -1.1951497 13814975
-0.077728078 -0.21806809 -1.1966842 6781054
-0.081133559 -0.21743841 -1.1991625 6648954
-0.12448344 -0.21541029 -1.1999213 4078393
-0.12805472 -0.2160698 -1.1995754 3815478
-0.13199073 -0.21746071 -1.1992873 3683892
-0.1370164 -0.21755132 -1.1982979 3552563
-0.14258386 -0.21819678 -1.197391 3618356
-0.14685355 -0.21812056 -1.1969737 3552307
-0.15225324 -0.21812148 -1.1969788 3486771
-0.15771373 -0.21820641 -1.197444 3618357
-0.16235195 -0.21769425 -1.1981919 3683893
-0.1673964 -0.21715528 -1.1990951 3749685
-0.17280111 -0.21609156 -1.1996962 3947063
-0.21901596 -0.2168532 -1.1989208 5990767
-0.22237639 -0.2180592 -1.1966357 6188402
-0.07876236 -0.21255095 -1.1960095 6583933
-0.082169808 -0.21190947 -1.1984863 6451317
-0.098508656 -0.21108975 -1.1999742 4801857
-0.10283532 -0.21108282 -1.1999348 4604734
-0.10824749 -0.2110824 -1.1999325 4275770
-0.11257745 -0.21108252 -1.1999331 4144442
-0.1169074 -0.21108262 -1.1999338 4078649
-0.12271361 -0.21188152 -1.1995533 3947064
-0.12761584 -0.21197233 -1.1988425 3815478
-0.13187015 -0.2118572 -1.1981913 3684149
-0.13749267 -0.21218054 -1.1974019 3552563
-0.14253627 -0.21272451 -1.1969901 3552307
-0.14685296 -0.21272068 -1.1969689 3486771
-0.1522519 -0.21272059 -1.1969683 3420979
-0.15765455 -0.21272554 -1.1969959 3552564
-0.16180114 -0.21235049 -1.1973156 3552564
-0.16752885 -0.21184249 -1.1981081 3684149
-0.17305392 -0.21199094 -1.1989475 3881271
-0.17748064 -0.21211088 -1.199626 4078393
-0.18185641 -0.2110832 -1.1999369 4144185
-0.18726975 -0.21108431 -1.1999432 4209979
-0.19268228 -0.21108443 -1.1999439 4407356
-0.19701232 -0.21108451 -1.1999445 4604991
-0.20026413 -0.21108909 -1.1999705 4802113
-0.21832663 -0.21184248 -1.1981077 5924974
-0.22168671 -0.21305692 -1.195825 5991282
-0.082081549 -0.20736182 -1.1971989 6188660
-0.087628938 -0.20771314 -1.1992275 4408127
-0.093031667 -0.20769869 -1.199144 4473150
-0.097354904 -0.20769052 -1.1990969 4473406
-0.10276297 -0.2076894 -1.1990905 4473150
-0.10817161 -0.20768954 -1.1990913 4012857
-0.11249852 -0.20768964 -1.1990919 3881271
-0.11682545 -0.20768975 -1.1990925 3881271
-0.12220766 -0.20764542 -1.1988369 3815478
-0.12753229 -0.2075104 -1.1980574 3684149
-0.13285023 -0.20737647 -1.1972843 3552564
-0.13821407 -0.20732094 -1.1969646 3486771
-0.1425332 -0.20732087 -1.1969643 3486771
-0.14685236 -0.20732082 -1.1969639 3420979
-0.15225127 -0.20732075 -1.1969634 3420979
-0.1576502 -0.20732068 -1.1969631 3552307
-0.16196933 -0.2073206 -1.1969628 3552563
-0.16741902 -0.20738316 -1.197323 3618356
-0.17293631 -0.20752344 -1.1981328 3684149
-0.17735994 -0.20764078 -1.1988102 3815735
-0.18237014 -0.20746522 -1.1990453 3947064
-0.18757983 -0.20791745 -1.1991581 3947064
-0.19254722 -0.20769151 -1.1991026 4144442
-0.19687422 -0.20769161 -1.1991032 4473407
-0.20228443 -0.20769326 -1.1991125 4539199
-0.20770352 -0.20770368 -1.1991727 4538943
-0.2120427 -0.20771545 -1.1992407 4539200
-0.21718779 -0.20746483 -1.1977941 5398371
-0.22099788 -0.20806132 -1.1950152 5991538
-0.082381591 -0.20325398 -1.1963314 6188403
-0.087540247 -0.20317994 -1.1980137 4144957
-0.092940554 -0.20317239 -1.1979693 4144442
-0.097263411 -0.20317249 -1.1979699 4210235
-0.10266699 -0.20317261 -1.1979705 4341821
-0.10807058 -0.20317274 -1.1979713 4078906
-0.11239345 -0.20317285 -1.1979719 3815479
-0.11779705 -0.203173 -1.1979727 3947065
-0.12318965 -0.20315507 -1.1978674 3815735
-0.12745005 -0.20305623 -1.1972848 3552564
-0.13281505 -0.20300172 -1.1969644 3486771
-0.13821362 -0.20300108 -1.1969607 3421235
-0.14253275 -0.20300104 -1.1969603 3420979
-0.14685187 -0.20300098 -1.19696 3420979
-0.15225077 -0.2030009 -1.1969596 3420978
-0.15764968 -0.20300083 -1.1969591 3420979
-0.1619688 -0.20300075 -1.1969588 3486771
-0.16736901 -0.20300229 -1.1969677 3486771
-0.17281921 -0.20306246 -1.1973215 3552564
-0.17722572 -0.20316121 -1.1979036 3881272
-0.18264073 -0.20317446 -1.1979815 4012857
-0.18804443 -0.20317458 -1.1979821 3815735
-0.19236737 -0.20317467 -1.1979827 4210235
-0.19777107 -0.20317478 -1.1979834 4342077
-0.20317477 -0.20317492 -1.1979842 4210235
-0.20749813 -0.20317543 -1.1979871 4210235
-0.21182719 -0.20318134 -1.1980219 4210492
-0.21661688 -0.20322785 -1.1970248 5200220
-0.082538255 -0.19690375 -1.1959982 6056816
-0.087498158 -0.19768041 -1.1974378 4013628
-0.092898294 -0.19767828 -1.1974247 3749942
-0.097219095 -0.19767821 -1.1974241 3749942
-0.10262009 -0.19767809 -1.1974235 3815735
-0.10802107 -0.19767797 -1.1974226 3683893
-0.11234186 -0.19767785 -1.1974219 3552307
-0.11774283 -0.19767775 -1.1974212 3618100
-0.1231408 -0.19767292 -1.1973916 3552307
-0.12742439 -0.19761556 -1.1970431 3420978
-0.13281415 -0.19760139 -1.1969562 3420978
-0.13821305 -0.19760133 -1.1969558 3355442
-0.14253217 -0.19760126 -1.1969556 3355186
-0.14685127 -0.1976012 -1.1969551 3355186
-0.15225014 -0.19760112 -1.1969546 3355185
-0.15764904 -0.19760107 -1.1969543 3355186
-0.16196813 -0.19760101 -1.1969539 3420978
-0.16736701 -0.19760092 -1.1969534 3420978
-0.17278045 -0.19761734 -1.1970537 3420978
-0.17715058 -0.19767362 -1.1973959 3552563
-0.18255392 -0.19767621 -1.1974119 3618357
-0.18795481 -0.19767611 -1.1974112 3552563
-0.19227549 -0.197676 -1.1974106 3749686
-0.19767636 -0.19767587 -1.1974099 3815735
-0.20307723 -0.19767575 -1.197409 3749942
-0.20739791 -0.19767565 -1.1974083 3815478
-0.21252149 -0.19793895 -1.1973675 4145214
-0.2169313 -0.19664159 -1.1963748 5200735
-0.082055718 -0.19218083 -1.1968232 5662059
-0.087589256 -0.19247973 -1.1986846 3815734
-0.092990428 -0.19246812 -1.1986122 3881270
-0.097314022 -0.19246508 -1.1985933 4013112
-0.10272022 -0.19246483 -1.1985917 4012856
-0.10812642 -0.19246459 -1.1985903 3684149
-0.11245135 -0.1924644 -1.198589 3486770
-0.1174199 -0.19267222 -1.1985365 3552563
-0.12260145 -0.1922271 -1.1984575 3486514
-0.12749919 -0.19232917 -1.1977464 3420977
-0.13282964 -0.19222508 -1.1970977 3420977
-0.13821249 -0.1922016 -1.1969509 3355185
-0.14253157 -0.19220152 -1.1969506 3355185
-0.14685066 -0.19220148 -1.1969502 3355186
-0.15224952 -0.19220139 -1.1969498 3355186
-0.15764838 -0.19220133 -1.1969492 3420978
-0.16196747 -0.19220127 -1.196949 3420978
-0.16738948 -0.19222747 -1.1971126 3420978
-0.17288761 -0.19233704 -1.1977955 3420978
-0.17730071 -0.19243571 -1.19841 3552563
-0.18273036 -0.19246125 -1.1985693 3552563
-0.18813635 -0.19246098 -1.1985679 3552306
-0.19246112 -0.19246079 -1.1985666 3815478
-0.19742605 -0.1926686 -1.198514 4078649
-0.20263284 -0.19225231 -1.1986148 4013112
-0.20760182 -0.19246383 -1.1985856 3947063
-0.21193677 -0.19247283 -1.1986417 3947063
-0.21710658 -0.19226469 -1.1973453 4739671
-0.078725576 -0.18764675 -1.195451 5596524
-0.082375661 -0.18745013 -1.1983349 5398115
-0.08764983 -0.18936676 -1.1995134 3749941
-0.093428992 -0.18866102 -1.1996142 3947062
-0.097399808 -0.18830587 -1.19965 3947062
-0.1028081 -0.18830073 -1.199617 3881269
-0.10821883 -0.18830034 -1.1996148 3552305
-0.11254746 -0.18830018 -1.1996136 3420977
-0.1168761 -0.18829998 -1.1996124 3420720
-0.12252997 -0.1874464 -1.1993446 3355184
-0.12757704 -0.18812196 -1.1984779 3354928
-0.13183396 -0.18802534 -1.1978624 3354928
-0.1371558 -0.18791437 -1.197155 3355184
-0.14253111 -0.1878818 -1.1969466 3355185
-0.14685018 -0.18788174 -1.1969463 3355185
-0.15224902 -0.18788165 -1.1969458 3355186
-0.15764786 -0.18788157 -1.1969454 3420721
-0.16198003 -0.18789653 -1.1970412 3420977
-0.16748017 -0.18800928 -1.19776 3355185
-0.17323466 -0.18750788 -1.1987009 3355184
-0.17744456 -0.18718164 -1.1993821 3420976
-0.18180443 -0.18829709 -1.199594 3420976
-0.18721503 -0.18829687 -1.1995925 3486513
-0.19262563 -0.18829663 -1.1995909 3683634
-0.19695409 -0.18829644 -1.1995897 4012599
-0.20236993 -0.18830104 -1.1996194 4012854
-0.20779327 -0.18831229 -1.1996908 4012598
-0.21208389 -0.18936053 -1.1994739 3815734
-0.21766157 -0.18826652 -1.1980201 4739928
-0.22109133 -0.1876577 -1.1955204 5003872
-0.077921785 -0.18195954 -1.196347 5332579
-0.081095599 -0.18273447 -1.1986016 5200736
-0.12447665 -0.1829264 -1.1998558 3420463
-0.12788378 -0.18327796 -1.1993256 3289134
-0.13194451 -0.18277512 -1.1988668 3223598
-0.13724329 -0.18263094 -1.1979201 3355184
-0.14254868 -0.18250526 -1.197095 3355441
-0.14684959 -0.18248208 -1.1969414 3355185
-0.15224841 -0.18248202 -1.1969409 3355185
-0.1576709 -0.18250899 -1.1971194 3420977
-0.16208182 -0.18261148 -1.1977926 3420721
-0.16762333 -0.18276241 -1.1987834 3289391
-0.17258696 -0.18286583 -1.1994612 3354927
-0.17645092 -0.18294594 -1.199984 3486256
-0.21863669 -0.18317054 -1.1986215 4608341
-0.22209142 -0.18194677 -1.1962627 4674392
-0.074400723 -0.17575797 -1.1952722 6450285
-0.077790223 -0.17718627 -1.1976405 4871514
-0.081174739 -0.1785842 -1.1997713 4739927
-0.13238433 -0.17783511 -1.1995856 3354927
-0.13732886 -0.17733838 -1.198667 3420720
-0.142626 -0.17720193 -1.1977448 3420977
-0.14686581 -0.17710282 -1.1970747 3355185
-0.15226275 -0.17709954 -1.1970522 3355185
-0.15776305 -0.17721283 -1.1978186 3420978
-0.16218932 -0.17732653 -1.1985872 3486770
-0.1666296 -0.17744923 -1.1994163 3486513
-0.21959414 -0.17848776 -1.1991234 4147533
-0.22249834 -0.17713481 -1.197292 4279119
-0.22537416 -0.17577019 -1.1953553 5134426
0.0064802445 -0.17280844 -1.1972544 8880764
0.0021600064 -0.17280799 -1.1972513 12566461
-0.002160209 -0.17280754 -1.1972482 12697792
-0.0075604455 -0.17280698 -1.1972445 12632255
-0.01296065 -0.17280644 -1.1972406 12632256
-0.017280787 -0.17280599 -1.1972376 12697792
-0.022680929 -0.17280544 -1.1972337 12632255
-0.028081035 -0.17280488 -1.1972299 12632254
-0.032401096 -0.17280445 -1.1972268 12632254
-0.037801139 -0.17280389 -1.1972229 12631999
-0.043201149 -0.17280334 -1.1972191 12040118
-0.047521133 -0.1728029 -1.197216 7896444
-0.051841095 -0.17280245 -1.1972129 11710892
-0.057241011 -0.17280191 -1.1972092 10263190
-0.062640905 -0.17280133 -1.1972053 12105653
-0.066960782 -0.1728009 -1.1972023 12434875
-0.072374687 -0.17283298 -1.1974248 9803670
-0.076795772 -0.1741423 -1.1989961 4739669
-0.1331369 -0.1742685 -1.199865 3486513
-0.13739894 -0.17310132 -1.1992787 3486513
-0.14269872 -0.17296809 -1.1983556 3486514
-0.14692684 -0.17285511 -1.1975727 3552563
-0.1523101 -0.17283332 -1.1974216 3552307
-0.15784724 -0.17298284 -1.1984578 3486771
-0.16227593 -0.17309389 -1.1992272 3618099
-0.165601 -0.17317727 -1.199805 3683635
-0.22391875 -0.17307648 -1.1991107 4147017
-0.2274145 -0.17299011 -1.1970164 9540497
-0.23264509 -0.17259313 -1.1972592 12434619
-0.23757569 -0.17278141 -1.1970671 12039859
-0.2425039 -0.17296967 -1.1968752 10065810
-0.24776374 -0.17259158 -1.1972483 11645099
-0.25269189 -0.17277984 -1.1970564 7896445
-0.25701076 -0.1727794 -1.1970533 12237496
-0.26240927 -0.17277884 -1.1970495 12697791
-0.26780781 -0.17277828 -1.1970456 12632255
-0.27212656 -0.17277786 -1.1970426 12698046
-0.27752501 -0.17277731 -1.1970388 12698048
-0.28292346 -0.17277674 -1.197035 12763584
-0.28724214 -0.17277631 -1.1970319 12698048
-0.29216221 -0.17296457 -1.1968399 12763841
-0.29743737 -0.17258647 -1.1972129 12698048
-0.30235735 -0.1727747 -1.1970208 12500668
-0.30667582 -0.1727742 -1.1970172 8814453
-0.13905033 -0.16826716 -1.1995221 3486513
-0.14274122 -0.16761295 -1.1987129 3618099
-0.1469394 -0.16746783 -1.1976752 3684149
-0.15232135 -0.16744462 -1.1975093 3618356
-0.15790318 -0.16763656 -1.198882 3618099
-0.16180027 -0.16829373 -1.1997118 3683635
-0.2273149 -0.16994487 -1.1999075 9013639
-0.23272642 -0.16994433 -1.1999036 11447982
-0.23813789 -0.16994378 -1.1998999 11118501
-0.24246703 -0.16994333 -1.1998968 9079175
-0.24679618 -0.16994292 -1.1998937 11184809
-0.25220755 -0.16994236 -1.1998898 8488067
-0.2576189 -0.16994181 -1.199886 11447982
-0.26194799 -0.16994138 -1.1998829 11645361
-0.26735926 -0.16994083 -1.1998791 11711154
-0.27277052 -0.16994029 -1.1998751 11711154
-0.27709949 -0.16993985 -1.199872 11711154
-0.2825107 -0.16993929 -1.1998682 11711154
-0.28792179 -0.16993871 -1.1998641 11711154
-0.29225057 -0.16993824 -1.1998606 11711154
-0.29766154 -0.16993761 -1.1998563 11776947
-0.30307245 -0.16993698 -1.1998518 11184809
-0.306319 -0.16993661 -1.1998492 8092277
-0.13958736 -0.16231076 -1.1994867 3552562
-0.14274052 -0.16220529 -1.1987072 3486770
-0.14693868 -0.16206488 -1.1976695 3618100
-0.15232086 -0.16204263 -1.1975054 3552307
-0.15790343 -0.1622292 -1.1988839 3618099
-0.16125916 -0.16234133 -1.1997125 3749684
-0.13958682 -0.15798187 -1.1994821 3683891
-0.14273998 -0.15787922 -1.1987027 3684148
-0.14693813 -0.15774255 -1.197665 3749941
-0.15232044 -0.15772109 -1.1975021 3683893
-0.157903 -0.15790266 -1.1988807 3749685
-0.16125873 -0.15801181 -1.1997094 3815477
-0.1387444 -0.15303035 -1.1996849 4078392
-0.1427393 -0.15247168 -1.1986971 4012857
-0.14693743 -0.15233968 -1.1976593 4013113
-0.15231994 -0.15231916 -1.1974981 3881527
-0.15790248 -0.15249451 -1.1988766 4078649
-0.16125819 -0.15259992 -1.1997052 4209977
-0.13958715 -0.14716154 -1.1994849 4144441
-0.14273863 -0.14706415 -1.1986912 4144442
-0.14693673 -0.14693686 -1.1976535 3947320
-0.15231942 -0.14691728 -1.197494 3881271
-0.15790206 -0.14708653 -1.1988735 4210235
-0.16126212 -0.14719217 -1.1997347 4276027
-0.13959371 -0.14283995 -1.1995413 4144184
-0.14274035 -0.1427405 -1.1987059 4012855
-0.14693616 -0.14261465 -1.197649 3881527
-0.15231901 -0.14259581 -1.1974908 3749942
-0.15790582 -0.14276382 -1.1989019 4078649
-0.16127066 -0.14287055 -1.1997982 4407355
-0.13960207 -0.13743757 -1.1996131 4078905
-0.14274824 -0.13734122 -1.1987722 4013113
-0.14693771 -0.137214 -1.1976618 4013114
-0.15259987 -0.1374741 -1.1975758 3881528
-0.15791593 -0.13736485 -1.1989787 4144699
-0.16128132 -0.13746785 -1.1998774 4341820
-0.1320193 -0.13093734 -1.1995478 6846332
-0.13775493 -0.13170053 -1.1986089 6714746
-0.1425827 -0.13178194 -1.1973822 6583674
-0.14733021 -0.13221985 -1.1964612 6978175
-0.15275769 -0.13278659 -1.1967032 6319472
-0.15772337 -0.13179678 -1.1975164 6715003
-0.16180432 -0.13153423 -1.1984073 6912382
-0.16659965 -0.1308994 -1.1992002 7241091
-0.1278735 -0.12715356 -1.1978785 6780540
-0.1327711 -0.12737532 -1.1965749 7110020
-0.13809527 -0.12838562 -1.1959383 7110793
-0.14122431 -0.12828763 -1.1950256 7373965
-0.16287141 -0.12763709 -1.1956607 7373965
-0.16780318 -0.1276345 -1.196982 7373192
-0.17260328 -0.12720044 -1.1983205 7109762
-0.12319441 -0.12211394 -1.1979184 11580595
-0.1272532 -0.12401812 -1.195437 7833228
-0.17254949 -0.12401965 -1.1954517 8293779
-0.17733051 -0.12218416 -1.1986074 12238526
-0.12335613 -0.11730745 -1.1973928 15132388
-0.17700996 -0.1173569 -1.197899 16382198
-0.12315942 -0.11235668 -1.1975811 14935009
-0.1772636 -0.11241028 -1.1981523 16053490
-0.12315873 -0.10803466 -1.1975744 11578792
-0.17726356 -0.10808678 -1.1981521 12960445
-0.12315787 -0.1026322 -1.197566 14473942
-0.1772635 -0.10268241 -1.1981517 15592680
-0.12315699 -0.097229823 -1.1975574 9870490
-0.17726345 -0.097278044 -1.1981514 11383729
-0.12315631 -0.09290798 -1.1975508 14145751
-0.17726342 -0.092954554 -1.1981511 14803939
-0.12315544 -0.087505735 -1.1975422 15329769
-0.17726336 -0.087550193 -1.1981508 16579836
-0.12315457 -0.082103565 -1.1975338 15395305
-0.1772633 -0.08214584 -1.1981504 16645629
-0.12315387 -0.077781893 -1.1975272 15395560
-0.17726326 -0.077822343 -1.19815 16645629
-0.12315302 -0.072379865 -1.1975186 15395561
-0.1772632 -0.072417997 -1.1981498 16645629
-0.12315214 -0.066977903 -1.1975102 15395562
-0.17726317 -0.067013651 -1.1981494 16645629
-0.12315145 -0.062656395 -1.1975034 15461354
-0.17726311 -0.062690169 -1.198149 16645629
-0.12315058 -0.057254583 -1.197495 15461354
-0.17726305 -0.057285819 -1.1981486 16645629
-0.12314971 -0.051852837 -1.1974866 15461355
-0.17726295 -0.051881474 -1.198148 16645629
-0.12314902 -0.047531504 -1.19748 15461354
-0.17726286 -0.047557995 -1.1981473 16645629
-0.12314832 -0.043210212 -1.197473 11776687
-0.17726275 -0.04323452 -1.1981466 12631996
-0.11729008 -0.35621583 -1.2038707 8025196
-0.12025243 -0.35642356 -1.2009084 8024165
-0.18236445 -0.35604125 -1.2032816 8945266
-0.11748743 -0.35246411 -1.2036669 12631997
-0.12025192 -0.353172 -1.2009033 13092291
-0.18210848 -0.35227612 -1.2030251 14342616
-0.11728875 -0.34752458 -1.2038569 13882323
-0.12025107 -0.34775281 -1.2008948 14671839
-0.18236424 -0.34735805 -1.2032802 15790320
-0.11709008 -0.34258255 -1.2040472 13750737
-0.12025023 -0.34233367 -1.2008864 14671839
-0.18261997 -0.34243673 -1.2035352 15658734
-0.11748509 -0.33725566 -1.2036431 13882323
-0.12024955 -0.33799845 -1.2008796 14671839
-0.18210812 -0.3370817 -1.2030227 15790320
-0.11728643 -0.33231378 -1.2038331 13750737
-0.1202487 -0.33257946 -1.2008711 14671839
-0.18236385 -0.33216044 -1.2032776 15724527
-0.11728577 -0.327968 -1.2038264 13750737
-0.12024786 -0.32716054 -1.2008626 14606046
-0.18236376 -0.32781827 -1.2032771 15658734
-0.11728493 -0.32253572 -1.203818 13684944
-0.12024717 -0.32282546 -1.2008559 14606046
-0.1826195 -0.32289287 -1.2035319 15592941
-0.11728411 -0.31710362 -1.2038095 13684944
-0.12024631 -0.31740668 -1.2008474 14606046
-0.18210761 -0.31754613 -1.2030194 15724527
-0.11728345 -0.31275797 -1.2038025 13684944
-0.12024547 -0.311988 -1.2008389 14606046
-0.18236335 -0.31262073 -1.2032743 15592941
-0.11708479 -0.30781072 -1.2039927 13421772
-0.1202448 -0.3076531 -1.2008321 14474460
-0.18261908 -0.30769208 -1.2035292 15198440
-0.11747979 -0.30249569 -1.2035886 9738135
-0.12024395 -0.30223453 -1.2008237 10593700
-0.18210717 -0.30235177 -1.2030165 11186094
-0.11728112 -0.29754856 -1.2037787 12829635
-0.1202431 -0.29681605 -1.2008152 13882322
-0.18236291 -0.29742318 -1.2032716 14474716
-0.11708246 -0.29259899 -1.2039688 11579567
-0.12024242 -0.2924813 -1.2008084 12040117
-0.18261865 -0.29249135 -1.2035264 13487307
-0.11747746 -0.28728917 -1.2035648 12698048
-0.12024173 -0.28814662 -1.2008016 13158082
-0.18210676 -0.28715754 -1.2030137 14211286
-0.1172788 -0.28233975 -1.2037549 13355979
-0.12024089 -0.28272834 -1.2007933 14342617
-0.18236248 -0.28222573 -1.2032686 15198182
-0.11708399 -0.27739701 -1.2039849 10921893
-0.12024005 -0.27731013 -1.2007847 12961218
-0.18236236 -0.27788359 -1.2032678 13948114
-0.11832184 -0.27463669 -1.2033097 4606796
-0.1221449 -0.27247795 -1.2017726 3620159
-0.177821 -0.2721518 -1.201928 4146760
-0.18213516 -0.27410683 -1.204163 5133397
-0.1247758 -0.2690807 -1.2027392 3554367
-0.12770034 -0.26732427 -1.2016747 3817538
-0.132181 -0.26544565 -1.2010164 4343880
-0.13534977 -0.26528531 -1.2002909 4541259
-0.16786319 -0.26605412 -1.2005039 4475981
-0.17284961 -0.26740611 -1.2020391 4212552
-0.12916531 -0.26267213 -1.2032003 6709592
-0.13226099 -0.26235408 -1.2017436 5196612
-0.13646893 -0.26210731 -1.2006133 4341819
-0.16279492 -0.26242042 -1.2003946 4473662
-0.16691856 -0.26230001 -1.2014959 5328199
-0.17032044 -0.26253206 -1.2025585 6906971
-0.12848456 -0.25733125 -1.2036091 8023648
-0.13225357 -0.25800318 -1.2016761 5393476
-0.13646129 -0.25776052 -1.2005459 4538940
-0.16353367 -0.25775492 -1.2005198 4736063
-0.16690882 -0.25794941 -1.2014258 5393733
-0.17155346 -0.25732726 -1.2035902 8747370
-0.12832657 -0.25252879 -1.2034862 8023648
-0.13224429 -0.25256523 -1.2015918 5327683
-0.13645174 -0.25232771 -1.2004619 4604734
-0.16352175 -0.25232151 -1.2004323 4867649
-0.16689664 -0.25251192 -1.2013382 5393477
-0.17127551 -0.25246108 -1.203164 8155491
-0.128103 -0.24752274 -1.2034264 7958111
-0.13223501 -0.24712802 -1.2015076 5261891
-0.13644269 -0.24689658 -1.2003824 4407355
-0.16350983 -0.24688888 -1.2003448 4604478
-0.16688447 -0.24707517 -1.2012504 5262148
-0.17149727 -0.24747562 -1.2031975 8155490
-0.12788484 -0.24252626 -1.2034154 7431769
-0.1322276 -0.24277884 -1.2014402 5130305
-0.13643947 -0.24255931 -1.2003539 4275769
-0.16350697 -0.2425532 -1.2003237 4407356
-0.16687527 -0.24272713 -1.2011843 5130306
-0.17147046 -0.24309607 -1.20301 7563612
-0.12826101 -0.23720774 -1.2028698 6050891
-0.13222247 -0.2373504 -1.2013934 4867134
-0.1362282 -0.23758729 -1.2004005 4144184
-0.16350655 -0.23822132 -1.2003207 4275514
-0.16687058 -0.23730247 -1.2011508 4867391
-0.17143732 -0.23762415 -1.2027785 6445648
0.0065108007 -0.23113719 -1.2029002 11906726
0.0021702028 -0.23113787 -1.2029037 16777215
-0.0021704212 -0.23113856 -1.2029073 16777215
-0.0075962385 -0.23113942 -1.2029119 16777215
-0.013022094 -0.23114029 -1.2029164 16777215
-0.017362807 -0.23114097 -1.20292 16777215
-0.022788739 -0.23114182 -1.2029244 16777215
-0.028214706 -0.2311427 -1.2029288 16777215
-0.032555509 -0.23114337 -1.2029324 16777215
-0.036896333 -0.23114404 -1.2029358 16777215
-0.042322412 -0.23114489 -1.2029403 16514300
-0.047748517 -0.23114572 -1.2029446 13028555
-0.05208943 -0.2311464 -1.2029481 16777215
-0.057515617 -0.23114724 -1.2029525 15856111
-0.062941834 -0.23114809 -1.2029569 16777215
-0.067282841 -0.23114875 -1.2029605 16777215
-0.072738774 -0.23124111 -1.2034409 13093835
-0.12492937 -0.23247746 -1.2042196 5196098
-0.12797917 -0.23209846 -1.2022573 4933183
-0.1322069 -0.23190419 -1.2012516 4407098
-0.13664742 -0.23236565 -1.2002777 3947062
-0.16350602 -0.23280644 -1.2003169 4144185
-0.16685553 -0.23186383 -1.2010425 4538428
-0.17250906 -0.23218028 -1.2026808 5261891
-0.22495894 -0.23147938 -1.204681 6384494
-0.2279201 -0.231176 -1.2031021 14935524
-0.23226222 -0.23117678 -1.2031062 16777215
-0.23768991 -0.23117775 -1.2031113 16448249
-0.24311763 -0.23117873 -1.2031164 15921904
-0.24745984 -0.23117951 -1.2031205 16777215
-0.25180212 -0.23118028 -1.2031245 13488850
-0.25722995 -0.23118126 -1.2031296 16185335
-0.26265788 -0.23118225 -1.2031347 16777215
-0.26700023 -0.23118302 -1.2031387 16777215
-0.27242821 -0.23118401 -1.2031437 16777215
-0.27785626 -0.231185 -1.2031491 16777215
-0.28219873 -0.23118579 -1.2031531 16777215
-0.28762686 -0.23118679 -1.2031583 16777215
-0.29305506 -0.23118779 -1.2031635 16777215
-0.29739764 -0.23118858 -1.2031677 16777215
-0.3028259 -0.23118956 -1.2031728 16119027
-0.30716854 -0.23119037 -1.203177 11316133
0.0064962623 -0.2284556 -1.2002141 12696498
0.0021653567 -0.22845629 -1.2002177 16777215
-0.0021655748 -0.22845697 -1.2002213 16777215
-0.0075792763 -0.22845782 -1.2002257 16777215
-0.012993016 -0.22845867 -1.2002301 16777215
-0.017324036 -0.22845933 -1.2002337 16777215
-0.022737846 -0.22846015 -1.2002381 16777215
-0.028151697 -0.228461 -1.2002425 16777215
-0.032482807 -0.22846167 -1.200246 16777215
-0.036813941 -0.22846232 -1.2002494 16777215
-0.042227894 -0.22846317 -1.2002538 16645886
-0.047641885 -0.22846399 -1.2002583 13160399
-0.051973104 -0.22846466 -1.2002616 16777215
-0.057387169 -0.22846548 -1.200266 15921645
-0.062801272 -0.22846633 -1.2002704 16777215
-0.067132585 -0.22846699 -1.200274 16777215
-0.072571442 -0.2285433 -1.2006749 13948887
-0.077819295 -0.22766496 -1.2036637 6713973
-0.081524745 -0.22500801 -1.2049444 6647922
-0.1163131 -0.22501673 -1.2049911 5787977
-0.1231302 -0.22780386 -1.2036351 3946806
-0.12790936 -0.22763568 -1.2016008 4209720
-0.1321397 -0.22745384 -1.2006407 4012599
-0.13534075 -0.22845502 -1.200211 3946806
-0.16676983 -0.22741316 -1.200426 4144185
-0.17236269 -0.22764796 -1.2016655 4341562
-0.17780012 -0.22777198 -1.2042316 4144184
-0.22291666 -0.22769411 -1.2030532 6187371
-0.22741096 -0.22849376 -1.2004147 14540767
-0.23282647 -0.2284947 -1.2004195 16777215
-0.23824206 -0.22849569 -1.2004247 16710906
-0.24257453 -0.22849646 -1.2004287 15790060
-0.24690706 -0.22849722 -1.2004328 16777215
-0.25232276 -0.22849818 -1.2004379 14409951
-0.25773853 -0.22849916 -1.200443 16777215
-0.2620711 -0.22849992 -1.2004468 16777215
-0.26748696 -0.22850089 -1.200452 16777215
-0.27290282 -0.22850186 -1.2004571 16777215
-0.27723554 -0.22850263 -1.2004611 16777215
-0.28265148 -0.2285036 -1.2004663 16777215
