# .PCD v0.7 - Point Cloud Data file format
VERSION 0.7
FIELDS x y z rgb
SIZE 4 4 4 4
TYPE F F F U
COUNT 1 1 1 1
WIDTH 875
HEIGHT 1
VIEWPOINT 0 0 0 1 0 0 0
POINTS 875
DATA ascii
0.22675878 -0.29219177 -1.2505689 8484976
0.22277257 -0.29093617 -1.2509927 8289918
0.2173751 -0.29141369 -1.2511052 8158332
0.2122061 -0.29234692 -1.2512373 8025971
0.20773229 -0.29240462 -1.2514858 7894901
0.20283403 -0.29222876 -1.2521168 7697781
0.19731836 -0.29273018 -1.2516718 7895160
0.1919263 -0.29240397 -1.2514831 7960953
0.18737596 -0.2923508 -1.2512537 7828334
0.18285587 -0.29121447 -1.251219 8092539
0.17830148 -0.29115021 -1.2509426 8224125
0.17414832 -0.29150113 -1.2508332 8288370
0.24142177 -0.28541923 -1.2505529 8749436
0.23694946 -0.28659603 -1.2507658 8552317
0.23228063 -0.28735924 -1.2511441 8157816
0.22771469 -0.28774956 -1.252287 7697781
0.22269239 -0.28825748 -1.2530828 7171437
0.21719025 -0.28845614 -1.2539464 6974058
0.21277 -0.28859794 -1.2545629 7039851
0.18788524 -0.28861886 -1.2546537 6974058
0.18326287 -0.28846925 -1.2540035 6974058
0.17747968 -0.28826249 -1.2531046 7105644
0.17166027 -0.28798065 -1.251887 7829367
0.16726261 -0.28734788 -1.2510945 7959922
0.16250169 -0.28663558 -1.2509375 8420215
0.15793706 -0.28541517 -1.2505352 8287340
0.25163707 -0.28097606 -1.2508619 8087894
0.24784578 -0.28169438 -1.2507114 8552316
0.24273354 -0.28224859 -1.2515033 7960953
0.23739806 -0.28261641 -1.2531357 7303023
0.23299186 -0.28388876 -1.2537584 7171437
0.16741638 -0.28392851 -1.2539339 7039851
0.16279884 -0.28263533 -1.2532203 7171437
0.15808393 -0.28229177 -1.2516952 7763574
0.15277113 -0.28184763 -1.2507243 8421504
0.14789562 -0.28111479 -1.2514794 7890517
0.25613317 -0.27644339 -1.2507759 8882055
0.25278816 -0.27761564 -1.2509747 8486780
0.24791135 -0.27819455 -1.252566 7566195
0.24218318 -0.27952975 -1.2544994 7105644
0.15727516 -0.27947474 -1.2542526 6974058
0.15183586 -0.27767345 -1.2529377 7368816
0.14668299 -0.27756909 -1.2507648 8222836
0.14325836 -0.27636474 -1.2504201 9013641
0.26139927 -0.27268285 -1.2507783 8353389
0.25748286 -0.27216315 -1.2518541 7960953
0.25258583 -0.27384263 -1.2533345 7500402
0.14652877 -0.27384621 -1.2526616 7368816
0.14228001 -0.2721366 -1.2517329 7829367
0.13763945 -0.27189478 -1.2506138 8287340
0.26672068 -0.2667208 -1.2510414 8684676
0.26210645 -0.26775426 -1.2523626 7829367
0.25907695 -0.2681278 -1.254102 7303023
0.14145881 -0.26820612 -1.2544683 7105644
0.13783652 -0.26776156 -1.2523981 7631988
0.13337693 -0.2669788 -1.2508415 8355711
0.12972075 -0.26508176 -1.2504069 8816262
0.27268466 -0.26140124 -1.2507873 8419182
0.26777944 -0.26213139 -1.2524812 7960953
0.26377812 -0.26377824 -1.2549384 7434609
0.13297969 -0.26256803 -1.252766 7500402
0.1279663 -0.26157522 -1.250901 8288371
0.27644116 -0.25613129 -1.2507663 9079434
0.27217895 -0.25749815 -1.2519277 8092539
0.26816377 -0.25911194 -1.2542708 7566195
0.13128662 -0.25804609 -1.2545886 7237230
0.12711053 -0.25760594 -1.2513525 8092539
0.12295192 -0.25605607 -1.2503989 8947848
0.280967 -0.2516292 -1.2508221 7956309
0.27761492 -0.25278771 -1.2509719 8684676
0.27387851 -0.25261912 -1.2534993 7631988
0.12621005 -0.25354931 -1.2528766 7434609
0.12185819 -0.25274247 -1.2507482 8354938
0.11850245 -0.25167686 -1.2510591 7758418
0.28159231 -0.24716896 -1.2510943 8684676
0.27823338 -0.24794602 -1.2527412 7829367
0.12183728 -0.24796751 -1.2528511 7500402
0.11791588 -0.24711491 -1.250821 8487297
0.285467 -0.24259068 -1.2507627 8617335
0.28254369 -0.24234155 -1.2518117 8289918
0.27954495 -0.24332869 -1.2545681 7829367
0.11721488 -0.24233171 -1.2517617 8158332
0.11393014 -0.24139678 -1.2504233 8683644
0.28662759 -0.23697567 -1.2509043 8618367
0.28298661 -0.23776978 -1.2531058 7960953
0.11721555 -0.23782168 -1.253379 7566195
0.11283106 -0.23694518 -1.2507428 8486781
0.2900342 -0.2336074 -1.2509952 7890516
0.28741544 -0.23232634 -1.2513897 8421504
0.28400713 -0.23308922 -1.2542818 7829367
0.11655535 -0.23424253 -1.2543963 7434609
0.11289345 -0.23255911 -1.2514286 8158332
0.1094666 -0.23247622 -1.2509782 8354422
0.29108447 -0.22677538 -1.2506599 8618883
0.28766596 -0.22846135 -1.2524838 8158332
0.11261431 -0.22861707 -1.2525073 7829367
0.10867871 -0.22751093 -1.2505691 8618109
0.29170015 -0.22204055 -1.2512275 8486780
0.28842378 -0.22282086 -1.2538062 7960953
0.11198961 -0.22397888 -1.2539561 7500402
0.1079835 -0.22236244 -1.2512262 8289144
0.29236972 -0.2167383 -1.2513357 8486782
0.28865036 -0.21733668 -1.2547913 8158332
0.10814759 -0.2174222 -1.2513765 8355711
0.10493644 -0.21664339 -1.2507867 8221803
0.29242033 -0.21225993 -1.2515544 8553090
0.1084401 -0.21235988 -1.2521441 8092539
0.10490442 -0.21206507 -1.2504048 8684676
0.29250905 -0.20780699 -1.2519354 8487297
0.10849787 -0.20795186 -1.2528083 8026746
0.10490272 -0.20754969 -1.2503847 8816262
0.29679817 -0.20313202 -1.2509646 8088409
0.29236481 -0.20292881 -1.2527019 8421504
0.10812937 -0.20382416 -1.2529045 7960953
0.10418569 -0.20273024 -1.2508085 8485749
0.29675156 -0.19745825 -1.2507681 8353646
0.29288521 -0.19742325 -1.2523373 8618883
0.10731886 -0.19769306 -1.2522535 8158332
0.10381407 -0.19747287 -1.2508614 8354164
0.29254845 -0.19202174 -1.2521048 8684676
0.10809717 -0.19170995 -1.2525315 8224125
0.1049032 -0.19175875 -1.2503904 8947848
0.29245201 -0.18744159 -1.2516907 8750469
0.10846562 -0.18755341 -1.2524369 8355711
0.10490222 -0.18724503 -1.2503787 8684676
0.29236943 -0.18287306 -1.251336 8618624
0.10840663 -0.18293495 -1.2517591 8421504
0.10491703 -0.18275875 -1.2505553 8288629
0.29205164 -0.17787598 -1.2513531 8552058
0.28854993 -0.1776567 -1.2543546 8421504
0.11206343 -0.17545302 -1.2547827 8092539
0.10836341 -0.17834729 -1.2512628 8618883
0.10496441 -0.17945547 -1.25112 7824723
0.29163361 -0.17261136 -1.2505959 8684160
0.28813851 -0.17118941 -1.2525733 8816262
0.11187232 -0.17176431 -1.2526429 8421504
0.10832094 -0.17263646 -1.2507778 8618109
0.28788882 -0.16708964 -1.2514875 8882055
0.28413805 -0.16640761 -1.2548599 8684676
0.11295065 -0.16716608 -1.2520585 8553090
0.10942259 -0.16695419 -1.2504752 8487297
0.2902481 -0.16375871 -1.2519177 7629667
0.28662881 -0.16249873 -1.2509108 8882055
0.28379592 -0.16281572 -1.2533489 8684676
0.11649581 -0.16286878 -1.2537556 8289918
0.11283631 -0.16248409 -1.2507989 8684676
0.28618112 -0.15832111 -1.250596 8618109
0.28252009 -0.15821223 -1.2527094 8816262
0.27957195 -0.1550663 -1.2546893 8684676
0.11710201 -0.15776642 -1.2521657 8618883
0.1132049 -0.15833716 -1.2507224 8617336
0.28534791 -0.15451652 -1.2502409 8682612
0.28214273 -0.15235804 -1.2510341 8947848
0.27847883 -0.15111019 -1.2531685 8882055
0.12175207 -0.15115303 -1.2535229 8553090
0.11736528 -0.15234929 -1.2509636 8618883
0.11395427 -0.15457177 -1.2506881 7958888
0.28103819 -0.14672607 -1.2511389 8090219
0.27714202 -0.14704295 -1.2519019 9079434
0.27463901 -0.14579608 -1.2528397 8947848
0.12546553 -0.14581141 -1.2529714 8618883
0.12189563 -0.14672613 -1.2511299 8882055
0.11845241 -0.14778362 -1.2505308 8882055
0.27713987 -0.14251848 -1.2505242 8420731
0.27270269 -0.14211358 -1.2522584 9013641
0.13014461 -0.14146166 -1.2544925 8487297
0.12647827 -0.14228792 -1.2517997 8816262
0.1222334 -0.14254338 -1.2507437 8222577
0.27262536 -0.13800506 -1.2505161 9013641
0.26835912 -0.13768493 -1.2530775 8947848
0.13222072 -0.13674119 -1.2527181 8618883
0.12797546 -0.13790622 -1.2509832 8816262
0.27200326 -0.13430873 -1.2511133 7498338
0.26751423 -0.13319384 -1.2512383 9013126
0.26241714 -0.13234016 -1.2538488 9013641
0.25910163 -0.1301166 -1.2542214 9013641
0.14149874 -0.13017894 -1.2548224 8750469
0.13678028 -0.13225871 -1.2530771 8816262
0.13323964 -0.13323969 -1.2516674 8882055
0.1290189 -0.13353319 -1.2508959 8353389
0.26586139 -0.1289822 -1.2505383 8420731
0.26185861 -0.1275437 -1.2511762 8815489
0.2575087 -0.1264966 -1.2519807 9145227
0.25340223 -0.12557033 -1.2540171 9013641
0.14584674 -0.12549612 -1.2532759 8816262
0.14230739 -0.12649581 -1.2519717 8947848
0.13792109 -0.1279895 -1.251119 8947848
0.13351957 -0.12900619 -1.25077 8485749
0.25681791 -0.12220474 -1.2504479 8420731
0.2523016 -0.12219975 -1.2519277 9145227
0.2486673 -0.12094317 -1.2529593 9079434
0.1514817 -0.12095854 -1.2531185 8816262
0.14674512 -0.12191159 -1.2512926 9013641
0.14253642 -0.12222787 -1.2506841 8420730
0.2527802 -0.11849052 -1.2509319 8419439
0.24764575 -0.117616 -1.2512261 8947848
0.2428807 -0.11692289 -1.2522624 9211020
0.23761569 -0.11654517 -1.2542856 9145227
0.16175716 -0.11651048 -1.2539122 8947848
0.15784642 -0.11716178 -1.2528017 9013641
0.15237951 -0.11738861 -1.2512103 8947848
0.1467268 -0.11851053 -1.2511432 8221803
0.24721274 -0.1140114 -1.2513139 8219997
0.24213299 -0.11305533 -1.2507308 8289144
0.23699993 -0.11285783 -1.2510334 9276813
0.23276736 -0.11299521 -1.2525505 9145227
0.22837673 -0.11192754 -1.2532599 9145227
0.17186709 -0.11193937 -1.2533923 8947848
0.16724214 -0.11300245 -1.2526288 9079434
0.16251145 -0.1128556 -1.2510096 9013641
0.15832102 -0.11319391 -1.2505966 8486780
0.1534721 -0.11397588 -1.2509241 7894127
0.23586042 -0.10946637 -1.2509742 8219996
0.23206623 -0.10869843 -1.250801 8090992
0.22790675 -0.10831262 -1.2506785 8947848
0.2224592 -0.10840768 -1.25177 9276813
0.21696329 -0.10848305 -1.2526361 9211020
0.21283731 -0.10811482 -1.2527348 9211020
0.20788456 -0.10733186 -1.252404 9211020
0.20241632 -0.10742801 -1.253526 9079434
0.19672962 -0.10740978 -1.2533131 9145227
0.19206545 -0.10733064 -1.2523897 9145227
0.18722415 -0.10811701 -1.2527591 9145227
0.18306895 -0.10848661 -1.2526765 9211020
0.17777519 -0.10865382 -1.2520043 9211020
0.17217682 -0.10809036 -1.2507199 8882055
0.16737938 -0.10870191 -1.2508411 8354937
0.16368544 -0.10949999 -1.2513584 7695717
0.2234021 -0.10493122 -1.250723 7696493
0.21767583 -0.1048905 -1.2502377 8487297
0.21177053 -0.10419223 -1.2508887 8551799
0.20761262 -0.10380618 -1.2507639 8486265
0.2030935 -0.10380358 -1.2507288 8882055
0.19745685 -0.1038061 -1.250759 8816262
0.19181375 -0.10380501 -1.2507501 8420215
0.18768495 -0.1041852 -1.2508035 8551799
0.18271913 -0.10489439 -1.2502841 8421504
0.17826605 -0.10492891 -1.2506955 7762285
0.17495616 -0.10497376 -1.25123 7235165
0.22202165 -0.28658947 -1.2556803 7039851
0.217362 -0.28616169 -1.257123 7039851
0.21273737 -0.28584471 -1.2583904 7039851
0.20751382 -0.28753716 -1.2570026 7039851
0.20188707 -0.28808531 -1.2572695 7039851
0.19733611 -0.28806418 -1.2571775 6974058
0.19257969 -0.28739348 -1.2572258 6974058
0.18777411 -0.28586116 -1.2584625 6974058
0.1825529 -0.28630078 -1.2569031 6974058
0.17666388 -0.28651232 -1.2553422 6974058
0.23693928 -0.28001928 -1.2566963 7171437
0.23253065 -0.28130585 -1.2573839 7171437
0.22746648 -0.28371015 -1.2569807 7171437
0.22291058 -0.2842195 -1.2585653 7171437
0.21911043 -0.28495723 -1.2584771 7105644
0.18050143 -0.28494266 -1.2584128 7039851
0.17672426 -0.2841965 -1.2584635 6974058
0.17238331 -0.28352356 -1.2571589 6974058
0.16790098 -0.2813459 -1.2575637 6974058
0.16446 -0.28014928 -1.2572798 6974058
0.24661273 -0.27607021 -1.2559243 7303023
0.24279699 -0.27683356 -1.2576789 7171437
0.23776124 -0.27861881 -1.2580557 7171437
0.16306761 -0.27883938 -1.2581981 6974058
0.15762879 -0.27745605 -1.2570746 6974058
0.15300532 -0.27540976 -1.2563552 7105644
0.25217083 -0.27143899 -1.2563374 7368816
0.24786466 -0.27284023 -1.2584456 7368816
0.15171291 -0.27277979 -1.2581674 7105644
0.14768258 -0.27156892 -1.2560667 7105644
0.256919 -0.26735061 -1.2568331 7368816
0.25257054 -0.26847443 -1.2592674 7368816
0.14761783 -0.26911747 -1.2587311 7105644
0.14326665 -0.26725388 -1.2570893 7105644
0.26215094 -0.26215094 -1.2580006 7434609
0.25882429 -0.26450101 -1.2583771 7368816
0.14195783 -0.26460958 -1.2588936 7105644
0.13821359 -0.26258102 -1.2578888 7105644
0.13477241 -0.26161721 -1.2554336 7237230
0.2673867 -0.2569539 -1.2570031 7566195
0.26453578 -0.25885856 -1.2585431 7566195
0.13516395 -0.25783396 -1.2590809 7303023
0.1334824 -0.25751108 -1.2575078 7237230
0.27147654 -0.25220594 -1.2565118 7566195
0.26919115 -0.25215322 -1.259076 7631988
0.13050535 -0.25306496 -1.25797 7237230
0.12728119 -0.25116193 -1.2560104 7237230
0.27610955 -0.24664807 -1.2561039 7566195
0.27287796 -0.24789917 -1.2586203 7566195
0.12675205 -0.24782746 -1.2582566 7237230
0.123532 -0.2459309 -1.2562982 7237230
0.27749175 -0.24255177 -1.2575815 7763574
0.12251618 -0.24276061 -1.2574911 7368816
0.28102949 -0.23683625 -1.2561493 7829367
0.27880105 -0.23870231 -1.2580251 7829367
0.1214835 -0.23842525 -1.2585583 7500402
0.11898711 -0.23684123 -1.2561758 7434609
0.28142062 -0.23262574 -1.2578975 7829367
0.11822451 -0.23213518 -1.2576964 7434609
0.28648898 -0.22534123 -1.2552406 7829367
0.28382692 -0.22756031 -1.2574985 7829367
0.11695937 -0.22710524 -1.2587445 7500402
0.11441482 -0.22656365 -1.2557428 7434609
0.28619349 -0.22192304 -1.2572634 7960953
0.28490239 -0.22360873 -1.2582355 7829367
0.11379156 -0.22191061 -1.2571875 7566195
0.28604996 -0.21794358 -1.2582951 8158332
0.11345488 -0.2178304 -1.257642 7697781
0.28739882 -0.21345305 -1.2572492 8158332
0.1122463 -0.21315458 -1.2568302 7697781
0.2881043 -0.20757169 -1.2573527 8158332
0.11234748 -0.20767228 -1.2579632 7697781
0.28827983 -0.20202357 -1.2581189 8158332
0.11244584 -0.20217535 -1.2590644 7763574
0.10987123 -0.20161937 -1.2556021 7697781
0.28832397 -0.19751425 -1.2583116 8355711
0.11248115 -0.19769457 -1.25946 7960953
0.1098864 -0.19711623 -1.2557755 7895160
0.28817755 -0.1928757 -1.2576727 8421504
0.11239565 -0.19300304 -1.2585026 7960953
0.10982085 -0.19360191 -1.2550265 7960953
0.28803128 -0.18824185 -1.2570343 8421504
0.11230903 -0.18831657 -1.2575327 7960953
0.28698984 -0.18263055 -1.2574455 8421504
0.11322878 -0.18220733 -1.2576516 7960953
0.28594518 -0.1770146 -1.2578343 8487297
0.11382736 -0.17735641 -1.2575811 8026746
0.28653577 -0.17328058 -1.2554455 8684676
0.28409085 -0.17211942 -1.2579961 8684676
0.11698915 -0.17150854 -1.259065 8289918
0.11445706 -0.17225307 -1.2562065 8289918
0.28252608 -0.16792762 -1.2577704 8684676
0.11762638 -0.16754983 -1.2577697 8289918
0.28121656 -0.16328819 -1.256986 8684676
0.27828035 -0.16015325 -1.2590878 8684676
0.12150536 -0.16011469 -1.2587847 8289918
0.11910649 -0.16334686 -1.257436 8289918
0.28001988 -0.15984946 -1.2566996 8684676
0.27795082 -0.15656045 -1.2576046 8684676
0.12213699 -0.15616754 -1.2574816 8289918
0.11888999 -0.15965243 -1.2551504 8289918
0.27623248 -0.15228745 -1.2566637 8882055
0.27360487 -0.15099363 -1.2584801 8882055
0.12596714 -0.15093373 -1.2579808 8553090
0.12362458 -0.15311314 -1.2572397 8553090
0.27215672 -0.14741959 -1.2570395 8882055
0.26927948 -0.14656991 -1.2594893 8882055
0.13065493 -0.14656086 -1.2594116 8553090
0.12736255 -0.14777033 -1.2568113 8553090
0.27071247 -0.14385146 -1.255596 8882055
0.26783967 -0.1430005 -1.2580678 8882055
0.13157772 -0.14292005 -1.2573696 8553090
0.26640227 -0.13943614 -1.2566364 8882055
0.26284015 -0.13738118 -1.2585819 8947848
0.13740645 -0.13740616 -1.2588118 8618883
0.13365971 -0.13818997 -1.2556169 8553090
0.26292163 -0.13486114 -1.2562592 8947848
0.25746125 -0.1315667 -1.2572641 9013641
0.2534157 -0.1306853 -1.2597033 9079434
0.14659616 -0.1306866 -1.2597158 8816262
0.14295687 -0.13161184 -1.2576947 8750469
0.13822868 -0.13369739 -1.2559696 8750469
0.25234532 -0.12759131 -1.2572086 9013641
0.24865714 -0.12603176 -1.258625 9079434
0.15096703 -0.12599513 -1.2582593 8750469
0.14780521 -0.12739281 -1.257109 8750469
0.24675938 -0.12281364 -1.2566715 9013641
0.24333629 -0.12223666 -1.25851 9079434
0.23976982 -0.12158948 -1.259655 9145227
0.16022751 -0.12159117 -1.2596724 8947848
0.15626676 -0.12221456 -1.2582808 8882055
0.15186299 -0.12352951 -1.2562717 8750469
0.24123192 -0.11891719 -1.2554364 9145227
0.23717117 -0.11915378 -1.257934 9145227
0.23253787 -0.1168369 -1.2574252 9145227
0.22844526 -0.11706404 -1.2598698 9145227
0.17162226 -0.11706691 -1.2599007 8947848
0.16792013 -0.11686293 -1.2577055 8947848
0.16371489 -0.1183449 -1.2573656 8947848
0.15976991 -0.11897767 -1.2560749 8947848
0.22726193 -0.11391525 -1.2564722 9145227
0.22272803 -0.11306662 -1.2575337 9145227
0.21781315 -0.11231007 -1.2575431 9145227
0.21233052 -0.11241061 -1.2586689 9145227
0.20793687 -0.1124905 -1.2595633 9145227
0.20079301 -0.11003917 -1.2575201 9145227
0.19849654 -0.11002386 -1.2573451 9079434
0.19202743 -0.11248951 -1.2595522 9079434
0.18734309 -0.11240558 -1.2586125 9079434
0.18149422 -0.11229947 -1.2574244 9079434
0.17654933 -0.11303845 -1.2572187 8947848
0.17237277 -0.11453679 -1.2570803 8947848
0.21174535 -0.10983588 -1.2551969 9145227
0.20736861 -0.10991704 -1.2561245 9145227
0.20298669 -0.10999843 -1.2570546 9145227
0.1961513 -0.10998084 -1.2568536 9079434
0.19263707 -0.10991637 -1.2561169 9079434
0.18912652 -0.10985199 -1.2553811 9079434
0.20578063 -0.28536442 -1.2602755 7105644
0.20244206 -0.2854664 -1.2607259 7105644
0.19790295 -0.28548062 -1.2607887 7039851
0.19441748 -0.28537318 -1.2603141 7039851
0.22743776 -0.28088623 -1.2605872 7237230
0.22270378 -0.2818884 -1.2616826 7171437
0.21748033 -0.2823824 -1.2621964 7105644
0.21191132 -0.28254774 -1.2629352 7105644
0.20745 -0.28267846 -1.2635195 7171437
0.20280485 -0.28369927 -1.2629851 7171437
0.19827211 -0.2837342 -1.2631406 7105644
0.19213359 -0.28284386 -1.2632396 7039851
0.18682119 -0.282509 -1.2627622 7039851
0.1821745 -0.28236935 -1.262138 7039851
0.17795706 -0.28192312 -1.2618384 7039851
0.17287177 -0.28091609 -1.2607211 7039851
0.23772639 -0.27640092 -1.2608765 7237230
0.23224045 -0.27777746 -1.2619669 7237230
0.22828443 -0.27842283 -1.263172 7237230
0.22354721 -0.27943462 -1.2643096 7237230
0.17680642 -0.27946836 -1.2644625 7105644
0.17289186 -0.27852646 -1.2636424 7105644
0.16783924 -0.27760521 -1.2622182 7039851
0.16147529 -0.27632686 -1.2605388 7039851
0.24591561 -0.27096283 -1.2620435 7368816
0.24258667 -0.2728487 -1.2624925 7303023
0.23753205 -0.27401638 -1.2638714 7237230
0.23386458 -0.27493361 -1.2645912 7237230
0.16537677 -0.27486777 -1.2642884 7105644
0.16146989 -0.27392849 -1.2634665 7105644
0.1569353 -0.27264193 -1.2624403 7105644
0.15353748 -0.2718184 -1.2607249 7105644
0.25236866 -0.26603058 -1.262045 7368816
0.24857745 -0.26817089 -1.2628357 7368816
0.15268634 -0.26890823 -1.2630863 7105644
0.14799534 -0.26638952 -1.2619503 7105644
0.26054665 -0.26054677 -1.2612164 7434609
0.25705472 -0.26251799 -1.2619482 7368816
0.25316167 -0.26342574 -1.2641121 7434609
0.14712934 -0.26346436 -1.2642975 7171437
0.14372589 -0.2626223 -1.2624512 7105644
0.1399821 -0.26061729 -1.2615577 7105644
0.26255181 -0.25708804 -1.2621114 7631988
0.25889346 -0.25889358 -1.2642554 7500402
0.14021459 -0.25877023 -1.2636529 7237230
0.13697517 -0.25687477 -1.2618095 7303023
0.26633644 -0.25267839 -1.2616985 7631988
0.26346019 -0.25319502 -1.2642779 7697781
0.13644637 -0.25350794 -1.2639407 7368816
0.13311632 -0.25257909 -1.2612035 7303023
0.27100003 -0.24594957 -1.2622173 7631988
0.26820701 -0.24861117 -1.2630064 7631988
0.1317749 -0.24873827 -1.2628807 7303023
0.12854525 -0.24685258 -1.2610065 7303023
0.27331984 -0.24257071 -1.262411 7697781
0.12735443 -0.24308757 -1.262728 7368816
0.12398218 -0.24000241 -1.2608764 7500402
0.27701199 -0.23719516 -1.2610717 7895160
0.27476773 -0.23714367 -1.2638288 7960953
0.12665986 -0.23848587 -1.2648987 7566195
0.12332396 -0.23640113 -1.2618912 7500402
0.27788725 -0.23233247 -1.2624663 7895160
0.12266387 -0.23279412 -1.2629088 7500402
0.2809999 -0.22752999 -1.2610978 7895160
0.27853245 -0.22837453 -1.26367 7960953
0.12199996 -0.2291777 -1.2639086 7566195
0.11950663 -0.22763136 -1.2616606 7500402
0.28215039 -0.2224863 -1.2621776 7960953
0.27945295 -0.22470307 -1.2643932 7960953
0.11845572 -0.22324073 -1.2625767 7566195
0.28275484 -0.21713576 -1.2628431 8158332
0.11734659 -0.21760358 -1.2629119 7829367
0.28538319 -0.21147913 -1.2603588 8158332
0.28301409 -0.21235657 -1.2633214 8224125
0.11744419 -0.2120837 -1.2639623 7829367
0.11484538 -0.21263421 -1.2604684 7763574
0.2855199 -0.20703031 -1.2609626 8158332
0.28375036 -0.20739982 -1.2632132 8224125
0.11750308 -0.2087678 -1.264596 7829367
0.11494531 -0.20712918 -1.2615652 7763574
0.28565645 -0.20257701 -1.2615656 8158332
0.28388202 -0.20293571 -1.2637994 8224125
0.11502237 -0.20271268 -1.2624109 7829367
0.28572729 -0.1980741 -1.2618785 8355711
0.28396231 -0.19843166 -1.2641568 8355711
0.11506754 -0.19823548 -1.2629067 7960953
0.28559169 -0.19342886 -1.2612797 8421504
0.28380641 -0.19262408 -1.2634627 8487297
0.11626958 -0.19263875 -1.2635763 8092539
0.11495041 -0.19120505 -1.2616211 8026746
0.28541312 -0.18762262 -1.260491 8421504
0.28303707 -0.18653883 -1.2634243 8487297
0.11746179 -0.18702692 -1.2641517 8092539
0.11486346 -0.18651137 -1.2606668 8026746
0.28261843 -0.18233536 -1.2632519 8487297
0.1173766 -0.18233296 -1.2632349 8092539
0.2824674 -0.17768204 -1.2625768 8487297
0.11728632 -0.17763796 -1.2622632 8092539
0.2818408 -0.17335342 -1.2614704 8684676
0.27944988 -0.17337349 -1.2643794 8684676
0.11881258 -0.1734724 -1.2623364 8289918
0.28089714 -0.16944815 -1.2606367 8684676
0.2780394 -0.16750759 -1.2631561 8684676
0.12192258 -0.16750295 -1.2631069 8289918
0.11945585 -0.1695137 -1.2611244 8289918
0.27761769 -0.16270241 -1.2612404 8684676
0.27485335 -0.16194728 -1.2642226 8684676
0.12334121 -0.16204996 -1.2620659 8289918
0.27631187 -0.15805502 -1.260471 8684676
0.27379009 -0.15683164 -1.2628282 8750469
0.12651654 -0.15729165 -1.2634674 8421504
0.12397895 -0.15810174 -1.2608436 8289918
0.27206159 -0.15310749 -1.2618623 8882055
0.26906484 -0.15163459 -1.2638223 8947848
0.13113728 -0.15166324 -1.2640611 8618883
0.1278487 -0.15288687 -1.2616092 8553090
0.26763439 -0.14805356 -1.2624538 8882055
0.1325472 -0.14849806 -1.2630011 8553090
0.26529244 -0.14460152 -1.2621429 8947848
0.26274574 -0.14242637 -1.2630441 8882055
0.14031008 -0.14031018 -1.2645135 8684676
0.1363028 -0.14313658 -1.2626091 8553090
0.13300282 -0.1443707 -1.2601281 8553090
0.26167369 -0.13880083 -1.2611654 8947848
0.25745365 -0.13670255 -1.2627912 9079434
0.25433308 -0.1357204 -1.2642634 9079434
0.1423841 -0.13668847 -1.2626675 8816262
0.1377067 -0.13998294 -1.2615643 8553090
0.2557981 -0.13301507 -1.2602432 9079434
0.2524426 -0.13248566 -1.2624153 9079434
0.24859427 -0.13113964 -1.2640829 9079434
0.15169607 -0.13116588 -1.2643356 8816262
0.14804898 -0.13210595 -1.2624166 8816262
0.1444069 -0.13303638 -1.260445 8816262
0.24706887 -0.12809032 -1.2621199 9079434
0.24383114 -0.12647361 -1.2630377 9079434
0.15608652 -0.12646435 -1.2629452 8816262
0.15291965 -0.12787633 -1.2618806 8816262
0.24134542 -0.12408831 -1.2619545 9145227
0.23696555 -0.12304141 -1.2628809 9145227
0.23258053 -0.1219911 -1.2638156 9145227
0.16637829 -0.12193438 -1.2632282 9013641
0.16215947 -0.12342475 -1.2629195 8947848
0.1582133 -0.12406663 -1.2617341 9013641
0.23205797 -0.11944193 -1.2609763 9145227
0.22741909 -0.11883593 -1.2625853 9145227
0.22221604 -0.11737625 -1.2632298 9145227
0.21675819 -0.11750592 -1.2646253 9211020
0.21069238 -0.1150267 -1.2624573 9211020
0.20738111 -0.11508529 -1.2631003 9211020
0.20296124 -0.11516356 -1.2639594 9211020
0.19843985 -0.11518629 -1.2642088 9145227
0.19256607 -0.11508361 -1.2630817 9145227
0.18787375 -0.11500157 -1.2621814 9145227
0.18251552 -0.1174943 -1.2645004 9145227
0.17778213 -0.11738154 -1.2632867 9013641
0.17358252 -0.11888816 -1.2631384 8947848
0.16839088 -0.11946611 -1.2612315 8947848
0.22169432 -0.11482634 -1.2602582 9145227
0.21730059 -0.11490798 -1.2611542 9145227
0.2128979 -0.11498769 -1.2620291 9145227
0.20573743 -0.11253047 -1.260011 9145227
0.20243512 -0.11259049 -1.2606831 9145227
0.19789366 -0.11259461 -1.2607291 9079434
0.19437253 -0.11253153 -1.2600228 9079434
0.18553039 -0.11496061 -1.2617319 9079434
0.18201517 -0.11489701 -1.2610338 9079434
0.17850214 -0.11483265 -1.2603275 9079434
0.20687501 -0.28002432 -1.2669779 7171437
0.20270211 -0.28085801 -1.2666186 7171437
0.19714762 -0.28121468 -1.2661664 7105644
0.19316095 -0.28002638 -1.2669872 7105644
0.23173638 -0.27511573 -1.2654289 7237230
0.22737341 -0.27593338 -1.2665652 7237230
0.22216232 -0.27741623 -1.267254 7237230
0.21746367 -0.27828702 -1.267404 7171437
0.21265289 -0.27896333 -1.2673547 7171437
0.20860626 -0.27877721 -1.2682415 7171437
0.20273937 -0.27833769 -1.2697119 7237230
0.19700952 -0.27833319 -1.2696911 7171437
0.19183601 -0.27878988 -1.2682993 7105644
0.18750291 -0.27896667 -1.2673701 7105644
0.18270667 -0.27828887 -1.2674128 7105644
0.17801639 -0.27712497 -1.2676657 7105644
0.17250033 -0.27607688 -1.2663484 7105644
0.16778398 -0.27507457 -1.2652396 7105644
0.24099845 -0.27069506 -1.2661097 7303023
0.23732288 -0.27160648 -1.2668122 7303023
0.23334679 -0.27223757 -1.2679787 7303023
0.22781539 -0.27360871 -1.2690285 7303023
0.17169712 -0.27357024 -1.2688502 7171437
0.16702133 -0.27226615 -1.2681121 7171437
0.16265701 -0.27160254 -1.2667941 7105644
0.15874787 -0.27067101 -1.2659973 7171437
0.2463018 -0.26685858 -1.265973 7434609
0.24250931 -0.26767537 -1.2680407 7500402
0.23817004 -0.2690869 -1.2692993 7303023
0.16143206 -0.26905361 -1.2691423 7171437
0.15743849 -0.26798782 -1.2677137 7171437
0.15306346 -0.2661466 -1.266206 7171437
0.25189731 -0.26217991 -1.2663574 7434609
0.2475234 -0.26354173 -1.2683312 7500402
0.24400857 -0.26462913 -1.2698869 7566195
0.15225101 -0.26271865 -1.2689643 7237230
0.14893577 -0.26244619 -1.2667257 7171437
0.25719756 -0.25719756 -1.267143 7566195
0.25290284 -0.25919753 -1.2685366 7500402
0.14603829 -0.2589027 -1.2680262 7237230
0.14227843 -0.25712696 -1.2667983 7237230
0.26221347 -0.25192982 -1.2665201 7697781
0.25922963 -0.2529344 -1.2686942 7697781
0.14068513 -0.25391889 -1.2678933 7368816
0.13753156 -0.25106075 -1.2669352 7368816
0.26689386 -0.2463346 -1.2661409 7697781
0.26357579 -0.24755557 -1.2684956 7697781
0.1369893 -0.24764813 -1.2689701 7368816
0.13285258 -0.24629015 -1.2659128 7368816
0.27060825 -0.24206258 -1.2657042 7697781
0.26771089 -0.2425417 -1.2682095 7697781
0.1323052 -0.24287625 -1.2679633 7368816
0.12907237 -0.24101143 -1.2661774 7368816
0.2719906 -0.23770659 -1.2668288 7960953
0.26908633 -0.23931518 -1.2692972 7829367
0.13175094 -0.2394432 -1.2699763 7434609
0.12844253 -0.23744583 -1.2674679 7500402
0.27513123 -0.2328909 -1.2655008 7960953
0.27258003 -0.23275752 -1.2685071 7960953
0.12760885 -0.23289923 -1.268656 7566195
0.1244424 -0.23175991 -1.2655568 7566195
0.27635372 -0.22698061 -1.2669213 7960953
0.2737118 -0.2279024 -1.2695073 7960953
0.12366383 -0.22698164 -1.266928 7566195
0.27787474 -0.22184397 -1.2676111 7960953
0.1232148 -0.22239573 -1.2685815 7566195
0.11989048 -0.22037034 -1.2657129 7697781
0.2790097 -0.21726239 -1.267566 8224125
0.12253227 -0.21758068 -1.2694232 7829367
0.1199481 -0.21704894 -1.2663211 7829367
0.28065014 -0.21210702 -1.2663678 8224125
0.27823108 -0.21296696 -1.2692258 8224125
0.12002499 -0.2126157 -1.2671328 7829367
0.28106755 -0.20794497 -1.2665335 8224125
0.27835345 -0.20847869 -1.2697842 8289918
0.12010229 -0.2081773 -1.2679489 7829367
0.1175424 -0.20655529 -1.2650192 7829367
0.2810342 -0.20282945 -1.2674137 8224125
0.12019873 -0.20262043 -1.268967 7829367
0.11760022 -0.20323145 -1.2656415 7829367
0.28144073 -0.1973062 -1.2671849 8421504
0.12022714 -0.19694389 -1.2692671 8026746
0.11763903 -0.19758837 -1.266059 7960953
0.28112018 -0.19198544 -1.266771 8487297
0.27840009 -0.19132854 -1.2699969 8553090
0.12014455 -0.19223166 -1.2683952 8092539
0.11756845 -0.19290376 -1.2652996 8092539
0.28070161 -0.18776949 -1.2666001 8487297
0.27830502 -0.18782747 -1.2695632 8553090
0.12006078 -0.18752387 -1.2675107 8092539
0.27907142 -0.18299855 -1.2678466 8487297
0.12255698 -0.18211755 -1.2696793 8158332
0.11997711 -0.18282264 -1.2666274 8092539
0.27832657 -0.17769949 -1.267583 8618883
0.12248212 -0.17857255 -1.2689037 8158332
0.11988445 -0.1781145 -1.2656493 8158332
0.27680102 -0.17211592 -1.2668766 8684676
0.27374974 -0.17066415 -1.2696832 8750469
0.1234889 -0.17265451 -1.2674795 8355711
0.27526015 -0.16675559 -1.2660937 8750469
0.27345544 -0.16704859 -1.2683183 8750469
0.12706517 -0.16713148 -1.2689464 8421504
0.12446051 -0.16670933 -1.2657411 8355711
0.27215338 -0.16237831 -1.2675874 8750469
0.127647 -0.16193895 -1.2671362 8355711
0.27145973 -0.15800305 -1.2661284 8816262
0.26829627 -0.15761988 -1.2691734 8882055
0.13159363 -0.15676819 -1.2684599 8618883
0.12911226 -0.15767786 -1.2665687 8487297
0.267133 -0.15357347 -1.2672758 8947848
0.26333529 -0.15113154 -1.2691739 8947848
0.13630645 -0.15234263 -1.2697235 8684676
0.13301344 -0.15359394 -1.267444 8618883
0.26596907 -0.14953631 -1.2653619 8947848
0.26229006 -0.14749657 -1.2674488 8947848
0.2597284 -0.14531067 -1.2683326 8947848
0.14079548 -0.14537431 -1.2688881 8618883
0.13713881 -0.14742471 -1.2668288 8618883
0.25768292 -0.14153245 -1.2672832 8947848
0.14540753 -0.14082786 -1.269179 8882055
0.14219482 -0.14219473 -1.267751 8684676
0.2522577 -0.13745087 -1.2675951 9079434
0.24847336 -0.13625965 -1.2692865 9079434
0.15237293 -0.13633376 -1.269977 8882055
0.14745785 -0.13716987 -1.2671145 8816262
0.25000829 -0.13356613 -1.2654642 9079434
0.24660182 -0.13302086 -1.2675153 9079434
0.24271293 -0.13166077 -1.2691061 9079434
0.15679799 -0.13161884 -1.2687019 8882055
0.15362434 -0.13303997 -1.2676958 8882055
0.14949699 -0.13352031 -1.26503 8816262
0.24181941 -0.12833644 -1.2664224 9079434
0.23826227 -0.12770943 -1.2677567 9211020
0.23358634 -0.12709877 -1.2692809 9211020
0.16600347 -0.12707859 -1.2690794 9079434
0.16204078 -0.12772743 -1.2679338 9013641
0.15802941 -0.12832808 -1.2663389 8882055
0.23308928 -0.12454313 -1.2665801 9145227
0.22800626 -0.12326646 -1.2675416 9145227
0.22192179 -0.12125666 -1.2680495 9211020
0.21729808 -0.12008594 -1.2677751 9211020
0.21286276 -0.12016463 -1.2686058 9211020
0.2084174 -0.12024097 -1.2694118 9211020
0.19240637 -0.12025394 -1.2695487 9145227
0.18770123 -0.12017451 -1.2687101 9145227
0.18299766 -0.12009215 -1.2678407 9145227
0.17732099 -0.12164698 -1.2681459 9013641
0.17152439 -0.12349866 -1.2675724 9013641
0.16681395 -0.12453882 -1.2665362 9013641
0.22378469 -0.11988498 -1.2656536 9145227
0.2123379 -0.11758512 -1.2654778 9211020
0.2079073 -0.117662 -1.2663051 9211020
0.20236072 -0.1177583 -1.2673415 9145227
0.19661258 -0.11773887 -1.2671325 9145227
0.19190872 -0.11765826 -1.2662649 9145227
0.18721098 -0.11757757 -1.2653965 9145227
0.17703217 -0.11992509 -1.266077 9013641
0.21656166 -0.27614489 -1.2701627 7237230
0.21319394 -0.27623546 -1.2705791 7237230
0.20757605 -0.27638638 -1.2712735 7237230
0.20195241 -0.27653742 -1.2719681 7237230
0.19735123 -0.27652115 -1.2718934 7171437
0.19267277 -0.27639365 -1.2713069 7171437
0.18799873 -0.2762664 -1.2707214 7171437
0.184496 -0.27617118 -1.2702836 7171437
0.23031105 -0.27156091 -1.2701596 7368816
0.22683963 -0.27121302 -1.2721151 7368816
0.22292325 -0.27251107 -1.2724642 7368816
0.21758299 -0.27318507 -1.2734621 7237230
0.21250853 -0.27396345 -1.2733409 7237230
0.20679136 -0.27457327 -1.2735023 7303023
0.20228188 -0.27468991 -1.2740432 7303023
0.19768615 -0.27469176 -1.2740519 7237230
0.19300292 -0.27456957 -1.2734852 7237230
0.18731067 -0.27349693 -1.2738438 7171437
0.18213369 -0.27354461 -1.2729963 7171437
0.17652094 -0.27246955 -1.2722714 7237230
0.17199032 -0.27174425 -1.2710171 7237230
0.23762211 -0.26632094 -1.2725008 7434609
0.23251735 -0.26878414 -1.2722069 7368816
0.22867462 -0.26889306 -1.2738094 7434609
0.17197098 -0.26925483 -1.273708 7237230
0.16759218 -0.26860523 -1.2724465 7237230
0.16320485 -0.26695648 -1.2722527 7237230
0.15938212 -0.26601839 -1.2710555 7303023
0.24726708 -0.26102528 -1.2709345 7566195
0.24265631 -0.26255846 -1.2728121 7566195
0.15731212 -0.26249117 -1.2728589 7303023
0.15366641 -0.26146257 -1.2712014 7303023
0.25551835 -0.25551847 -1.2701552 7631988
0.25200334 -0.25659207 -1.2716923 7566195
0.24847621 -0.25766474 -1.2732135 7566195
0.24493635 -0.25873569 -1.2747153 7566195
0.15525526 -0.25875893 -1.2748299 7368816
0.15120672 -0.25762498 -1.2730173 7303023
0.14716545 -0.2564877 -1.2711753 7303023
0.25662276 -0.25203374 -1.271845 7763574
0.25320294 -0.25320294 -1.2738799 7631988
0.14670661 -0.25319275 -1.273829 7368816
0.14258189 -0.25190648 -1.271203 7434609
0.26105797 -0.24729826 -1.2710942 7763574
0.25769523 -0.24850583 -1.2733647 7763574
0.14203459 -0.24846391 -1.2731501 7434609
0.1387862 -0.24660376 -1.2714539 7434609
0.26288655 -0.2428795 -1.2725508 7763574
0.25876611 -0.24496536 -1.2748657 7829367
0.13758343 -0.24277887 -1.2730554 7434609
0.13409428 -0.24182834 -1.2704691 7434609
0.26713011 -0.23729058 -1.2722591 7895160
0.13343278 -0.23723736 -1.2728984 7500402
0.27166164 -0.23039667 -1.2706312 8026746
0.26874223 -0.23199165 -1.2730956 8026746
0.13216864 -0.23215678 -1.2740026 7697781
0.12960957 -0.23169115 -1.2714473 7631988
0.27195546 -0.22663081 -1.2720134 8026746
0.26994091 -0.22858837 -1.2733284 8026746
0.1285474 -0.22725107 -1.2722752 7631988
0.27261102 -0.22300522 -1.2729315 8026746
0.12748322 -0.22280821 -1.2731212 7631988
0.12498432 -0.22130272 -1.2710681 7631988
0.2762793 -0.21781352 -1.2707814 8224125
0.27378976 -0.21864976 -1.273424 8158332
0.12595481 -0.2186013 -1.2731415 7763574
0.27640098 -0.21332189 -1.2713411 8289918
0.27458772 -0.21254675 -1.2735698 8289918
0.12520885 -0.21251015 -1.2733513 7895160
0.1226074 -0.21313064 -1.2702017 7895160
0.27702588 -0.20705342 -1.2715803 8289918
0.27473408 -0.20691267 -1.2742487 8289918
0.12530102 -0.2069191 -1.2742887 7895160
0.12270151 -0.20756023 -1.2711767 7895160
0.27762026 -0.20190631 -1.2716771 8289918
0.27485165 -0.20240119 -1.274794 8289918
0.12535615 -0.20356016 -1.2748494 7895160
0.12279591 -0.20198205 -1.2721546 7895160
0.2776508 -0.19733952 -1.2718172 8487297
0.12282158 -0.1974332 -1.2724206 8092539
0.27723351 -0.19310783 -1.2716566 8553090
0.2747857 -0.19315502 -1.2744882 8553090
0.12533535 -0.19317776 -1.2746378 8158332
0.12274012 -0.19271383 -1.2715766 8158332
0.27649212 -0.18815252 -1.2717603 8553090
0.27466375 -0.18847239 -1.2739224 8553090
0.12525582 -0.18845865 -1.2738291 8158332
0.12265866 -0.18800054 -1.2707326 8158332
0.27636594 -0.18347967 -1.2711799 8553090
0.27451155 -0.18262528 -1.2732166 8553090
0.12515634 -0.18256815 -1.2728173 8158332
0.12259762 -0.18446949 -1.2701004 8158332
0.27621257 -0.17879352 -1.2704744 8618883
0.27330834 -0.17684767 -1.2729665 8750469
0.12672654 -0.17726274 -1.2732021 8421504
0.12491455 -0.17533892 -1.2703584 8421504
0.27165991 -0.1724582 -1.2727804 8750469
0.12816703 -0.17178084 -1.2722992 8421504
0.2716338 -0.16733608 -1.270501 8750469
0.26914784 -0.16730852 -1.2732023 8750469
0.13220659 -0.1666954 -1.2743684 8421504
0.12966871 -0.16753727 -1.2720275 8421504
0.26792431 -0.1627761 -1.2724888 8750469
0.13286346 -0.16272791 -1.2733096 8421504
0.12947388 -0.16384761 -1.2701162 8421504
0.2658979 -0.15877412 -1.2723064 8947848
0.26205909 -0.15631595 -1.2741022 9013641
0.13792595 -0.15631562 -1.2741003 8684676
0.13345486 -0.15869237 -1.2716506 8618883
0.26223353 -0.15302739 -1.2716067 8947848
0.25859767 -0.15171137 -1.2740359 9013641
0.14136241 -0.15170701 -1.2739974 8684676
0.13802856 -0.15255906 -1.27152 8684676
0.25704515 -0.14688417 -1.2720449 8947848
0.25403142 -0.14598192 -1.2741916 9013641
0.14598122 -0.14598133 -1.2741864 8750469
0.1426768 -0.14726664 -1.272048 8684676
0.25563714 -0.14329442 -1.2707458 9013641
0.25246626 -0.14230058 -1.2721006 9145227
0.24928813 -0.14130162 -1.2734486 9145227
0.15047079 -0.14128184 -1.2732702 8882055
0.14729913 -0.14270847 -1.2723293 8882055
0.2474263 -0.13805462 -1.271753 9145227
0.2439757 -0.13750033 -1.2737035 9145227
0.15634389 -0.13795109 -1.2743315 8882055
0.15258953 -0.13805635 -1.2717751 8882055
0.24211967 -0.13425703 -1.2720103 9145227
0.2376726 -0.13204119 -1.272773 9145227
0.16310824 -0.13209434 -1.2732854 9013641
0.15872008 -0.13347836 -1.2718734 8882055
0.23616119 -0.12954506 -1.2708133 9211020
0.23146065 -0.12893015 -1.2722793 9211020
0.22779796 -0.12825681 -1.273191 9211020
0.22312787 -0.12591688 -1.2727584 9211020
0.21832128 -0.12524763 -1.2737448 9211020
0.21385281 -0.12532251 -1.2745062 9211020
0.18626247 -0.1253247 -1.2745285 9211020
0.18155031 -0.12524667 -1.273735 9145227
0.17688037 -0.12634453 -1.2732112 9079434
0.17187843 -0.12824 -1.2730228 9079434
0.16790982 -0.12889774 -1.271958 9079434
0.16394612 -0.1295519 -1.2708806 9079434
0.22578292 -0.12492563 -1.27047 9211020
0.22112118 -0.12259056 -1.270026 9211020
0.21781839 -0.12266631 -1.2708108 9211020
0.21225116 -0.12276182 -1.2718003 9211020
0.20614198 -0.12200332 -1.271855 9211020
0.2019683 -0.12164151 -1.2720686 9211020
0.19735748 -0.12162864 -1.2719333 9145227
0.1928836 -0.12284843 -1.2726974 9145227
0.18816961 -0.12276915 -1.2718762 9145227
0.18346037 -0.12268907 -1.2710465 9145227
0.17768516 -0.12380721 -1.2707512 9079434
