# .PCD v0.7 - Point Cloud Data file format
VERSION 0.7
FIELDS x y z rgb
SIZE 4 4 4 4
TYPE F F F U
COUNT 1 1 1 1
WIDTH 498
HEIGHT 1
VIEWPOINT 0 0 0 1 0 0 0
POINTS 498
DATA ascii
0.36155018 -0.32172734 -1.1616865 4730667
0.35691458 -0.32254368 -1.1616068 4729383
0.35207656 -0.32273698 -1.1615484 4795948
0.34789979 -0.32275063 -1.1615973 4929331
0.34311634 -0.32257566 -1.1617219 4994610
0.33757529 -0.32185012 -1.1621299 4927018
0.3671366 -0.31683445 -1.1616777 4992036
0.36254966 -0.31749308 -1.1615311 4596771
0.35727826 -0.31746438 -1.1614264 4530721
0.35204035 -0.31746507 -1.1614289 4531492
0.34785032 -0.3174659 -1.1614321 4532005
0.34261587 -0.31746987 -1.1614466 4465956
0.33738953 -0.31748161 -1.1614894 4401190
0.33286932 -0.31680235 -1.1615599 4467497
0.37201861 -0.31228623 -1.1616514 5189156
0.36777413 -0.31224129 -1.1614846 4530208
0.36251262 -0.31222188 -1.1614125 4464158
0.35726953 -0.31221801 -1.1613979 4464415
0.35203436 -0.31222105 -1.1614094 4399392
0.3478457 -0.31222302 -1.1614166 4399392
0.34260821 -0.31222406 -1.1614205 4333857
0.33737323 -0.31222746 -1.1614332 4399649
0.33213967 -0.31223232 -1.1614511 4399649
0.32738817 -0.31201494 -1.1619428 4269862
0.3730247 -0.30805981 -1.1615211 4530721
0.36777025 -0.30804697 -1.1614726 4464671
0.36252365 -0.30804038 -1.1614479 4464671
0.35727841 -0.30803487 -1.161427 4399135
0.35203904 -0.30803424 -1.1614246 4399392
0.34784868 -0.30803475 -1.1614265 4333856
0.3426106 -0.30803528 -1.1614286 4333857
0.33737251 -0.30803585 -1.1614307 4333856
0.33213612 -0.30803803 -1.1614388 4333600
0.32691708 -0.30805659 -1.1615088 4334370
0.32438782 -0.30759114 -1.1637121 4072997
0.37621614 -0.30181134 -1.1616693 5320481
0.37303096 -0.30282575 -1.1615405 4464671
0.36776933 -0.30280727 -1.1614698 4399391
0.36252278 -0.30280092 -1.1614451 4399392
0.35728517 -0.30280188 -1.161449 4399392
0.35204953 -0.30280456 -1.1614594 4399391
0.34785956 -0.30280551 -1.1614629 4333599
0.34262192 -0.30280656 -1.161467 4333599
0.337385 -0.30280837 -1.1614739 4268064
0.33214793 -0.30280998 -1.1614801 4333856
0.32690865 -0.30280972 -1.1614789 4334884
0.32378712 -0.30283013 -1.1615572 4139817
0.37624219 -0.29764014 -1.1617496 4334627
0.37305316 -0.2976042 -1.1616094 4400419
0.36779046 -0.29758546 -1.1615362 4333856
0.36254385 -0.29757941 -1.1615126 4399648
0.3573063 -0.29758069 -1.1615176 4333856
0.35206684 -0.29758036 -1.1615163 4399135
0.34787261 -0.29757783 -1.1615064 4333598
0.34263697 -0.29758081 -1.161518 4333342
0.3374019 -0.29758435 -1.1615319 4333342
0.33216405 -0.29758555 -1.1615366 4333856
0.32691991 -0.29758102 -1.1615188 4269862
0.32379341 -0.2975966 -1.1615797 4205352
0.37658352 -0.29476321 -1.1628035 4005404
0.37309963 -0.29240108 -1.1617543 4269347
0.3678304 -0.29237798 -1.1616625 4333599
0.36257398 -0.29236457 -1.1616091 4333855
0.35733005 -0.29236102 -1.1615947 4333599
0.3520844 -0.29235587 -1.1615742 4333342
0.34788787 -0.2923516 -1.1615576 4333085
0.34264615 -0.29234955 -1.1615491 4332829
0.33741236 -0.2923542 -1.1615679 4332828
0.33217809 -0.2923587 -1.1615856 4333857
0.32693523 -0.29235557 -1.1615733 4466983
0.32388693 -0.29244125 -1.1619152 4270891
0.37212089 -0.28721449 -1.1619707 4333599
0.36746517 -0.28739008 -1.161833 4333599
0.36260775 -0.28715187 -1.1617174 4333341
0.35734791 -0.2871359 -1.1616527 4333341
0.35210088 -0.28712994 -1.1616287 4332828
0.34790418 -0.2871258 -1.1616118 4332571
0.34265846 -0.28712058 -1.1615909 4397593
0.33741456 -0.28711683 -1.1615754 4463129
0.3321842 -0.2871246 -1.1616069 4333855
0.32701182 -0.28718352 -1.1618459 4271145
0.37078142 -0.28341541 -1.1621529 4139302
0.36688408 -0.28302488 -1.1619842 4334883
0.36264709 -0.28299052 -1.1618433 4398364
0.35737291 -0.2829639 -1.161734 4332828
0.35211462 -0.28294927 -1.1616739 4332827
0.3479172 -0.28294477 -1.1616553 4332314
0.34267485 -0.28294262 -1.1616465 4397336
0.33742833 -0.28293684 -1.1616229 4462873
0.33219838 -0.28294507 -1.1616565 4596514
0.32823661 -0.28314281 -1.1624711 3876903
0.36660507 -0.27923498 -1.1622076 4401704
0.36273175 -0.27781457 -1.1621145 4268319
0.35743001 -0.27776816 -1.1619198 4332827
0.35216022 -0.27774534 -1.1618243 4332828
0.34795487 -0.27773502 -1.1617811 4397850
0.34270632 -0.27772835 -1.1617532 4528922
0.33748561 -0.27774432 -1.1618203 4595229
0.33304977 -0.27853128 -1.1621897 4401448
0.36225113 -0.27405092 -1.1639388 3809825
0.35715404 -0.27324101 -1.1627287 4072996
0.35236672 -0.27266431 -1.1625054 4139560
0.34754658 -0.27245802 -1.1625202 3942437
0.3429766 -0.27322677 -1.1626697 4202527
0.3387838 -0.27375415 -1.1626784 3876645
0.34291786 -0.32603583 -1.1696239 4398106
0.33410761 -0.32146007 -1.1683328 4593174
0.3318249 -0.31918404 -1.1677178 4727587
0.32874534 -0.31610137 -1.1680055 4526354
0.32561335 -0.31191534 -1.1681087 4262669
0.3235324 -0.30772519 -1.1682045 4263181
0.32225472 -0.30286556 -1.1681615 4066831
0.32242933 -0.29757896 -1.167268 3936531
0.32280397 -0.29329965 -1.1681143 3935246
0.32541385 -0.28644782 -1.167393 3937044
0.32408649 -0.28897455 -1.1676747 3936530
0.3724035 -0.28167638 -1.1694416 3544084
0.3275637 -0.28290513 -1.1675513 3806228
0.37018037 -0.27948096 -1.1690841 3478035
0.36714119 -0.27641094 -1.1694822 3410699
0.33290944 -0.27707237 -1.1678268 3542799
0.32999974 -0.27939284 -1.1687154 3671816
0.36173886 -0.27314982 -1.16907 3344393
0.35748377 -0.27171579 -1.1689533 3345420
0.35208982 -0.27091944 -1.1685476 3344907
0.34788576 -0.27092934 -1.1685903 3344650
0.34254733 -0.27192864 -1.1683584 3345421
0.33714437 -0.27392915 -1.167902 3411727
0.35506958 -0.32963184 -1.1749196 5252123
0.35139856 -0.32917136 -1.1732783 4857626
0.34715191 -0.32915974 -1.1732368 4527381
0.34115425 -0.32636747 -1.1708136 4460561
0.33879429 -0.32714945 -1.1736188 4460561
0.33380261 -0.32532516 -1.1746775 4854805
0.33599079 -0.32436949 -1.1712267 4527638
0.33200619 -0.32249129 -1.1720808 4655371
0.32905942 -0.32059497 -1.1728796 4654857
0.33046535 -0.31990746 -1.1703644 4523529
0.32670698 -0.31719249 -1.1720371 4458248
0.32306665 -0.31248987 -1.172641 4327433
0.32133308 -0.3075923 -1.1717163 4327177
0.32024759 -0.3022801 -1.1716092 4195848
0.31892985 -0.30303657 -1.174541 4327432
0.32021496 -0.29802185 -1.1714897 4130312
0.31887567 -0.29768783 -1.1743413 4064775
0.37977138 -0.29408431 -1.1726469 3739920
0.32109088 -0.2923435 -1.1716039 3933446
0.31903777 -0.29359964 -1.1749384 3999239
0.37746182 -0.28758898 -1.172045 3673871
0.32220241 -0.28750899 -1.1725767 3933961
0.37587395 -0.28269961 -1.1736898 3674642
0.3741844 -0.2822229 -1.1717173 3477263
0.32601935 -0.28090537 -1.1720976 3802887
0.32379964 -0.28358963 -1.1729938 3934988
0.37116602 -0.27811021 -1.1721969 3477520
0.36900648 -0.27596194 -1.1720551 3477520
0.3313182 -0.2763918 -1.1708918 3540487
0.32834905 -0.2781176 -1.1722341 3671559
0.36608115 -0.27297375 -1.1728467 3413012
0.36265156 -0.27172244 -1.1720197 3280655
0.34104705 -0.2713595 -1.1704457 3344649
0.33747515 -0.27135545 -1.1727132 3409158
0.33330062 -0.2735185 -1.1729153 3409158
0.36101022 -0.26996371 -1.1735581 3349274
0.35745385 -0.26967663 -1.17231 3346191
0.35282612 -0.2685872 -1.1731002 3279370
0.34756872 -0.26887339 -1.1725019 3278085
0.34326816 -0.26918042 -1.1732243 3343878
0.33981001 -0.26994261 -1.1734663 3474693
0.34455991 -0.3297174 -1.1752245 5712666
0.33725059 -0.32873961 -1.1793234 5975324
0.33308429 -0.32669938 -1.1796395 5845794
0.32887158 -0.32250637 -1.1759911 4984592
0.32576698 -0.31940028 -1.1762731 4852749
0.32300606 -0.31663102 -1.1778159 4656656
0.32147011 -0.31298256 -1.1760817 4458762
0.31989759 -0.31139541 -1.1781049 4328205
0.31887871 -0.30684534 -1.1769634 4328204
0.31770542 -0.30176729 -1.177858 4131596
0.3176631 -0.29747719 -1.177701 4065803
0.38054344 -0.29150271 -1.1750308 4396815
0.31829566 -0.29225841 -1.1780806 4197133
0.37865439 -0.28531668 -1.175748 4398099
0.32076532 -0.28571612 -1.177394 4263182
0.31959131 -0.28879964 -1.1769769 4131339
0.37703627 -0.28144968 -1.1773193 4531484
0.32250127 -0.28214493 -1.1772666 4132881
0.37332591 -0.2778734 -1.1756678 3610905
0.32682261 -0.27694964 -1.1762536 3803145
0.32404223 -0.27942011 -1.1777179 4263696
0.37001726 -0.27459741 -1.1752657 3610905
0.36724821 -0.27172112 -1.1765864 3677212
0.33614886 -0.27040371 -1.1754708 3540230
0.332369 -0.27184176 -1.1771076 3540744
0.32931885 -0.27407798 -1.1775982 3803660
0.36222073 -0.2687445 -1.1774932 3875105
0.35787687 -0.26761052 -1.1771843 3611932
0.35265571 -0.26661623 -1.1774764 3610134
0.34734207 -0.26661462 -1.1774694 3543056
0.341986 -0.26764011 -1.1773143 3542285
0.33785573 -0.26879779 -1.1777267 3672330
0.32640561 -0.32213897 -1.1824316 6043944
0.32066047 -0.31426865 -1.1809144 4526612
0.31884181 -0.31031102 -1.1820711 4198674
0.31830773 -0.30766207 -1.180091 4198160
0.31708667 -0.30320799 -1.1834803 3936531
0.3168695 -0.29766482 -1.1826696 4002066
0.31730977 -0.29380542 -1.1843129 4331289
0.31895074 -0.28801501 -1.182475 4528154
0.32151616 -0.2824367 -1.1814495 4595488
0.32620564 -0.2761035 -1.1817117 4529181
0.32418746 -0.2783336 -1.182128 4661281
0.36612383 -0.2700564 -1.1832414 5060142
0.33183119 -0.27101135 -1.1827592 3936273
0.32883242 -0.27331495 -1.183486 4331032
0.36145273 -0.26762435 -1.1819288 4270634
0.35556886 -0.26587588 -1.1836382 4335914
0.35191527 -0.26553595 -1.1821249 4203300
0.34772494 -0.26559389 -1.1823828 3875105
0.34495953 -0.26592863 -1.1838729 3744033
0.33750042 -0.26818737 -1.1820648 3805715
0.33373544 -0.26976067 -1.1819456 3805201
0.32413435 -0.31985542 -1.1858286 5978922
0.31986558 -0.31344697 -1.1858666 4398109
0.31797913 -0.30834454 -1.1868112 4069144
0.3166272 -0.2994543 -1.1897774 3871509
0.31784078 -0.2910859 -1.1862948 4530467
0.31916657 -0.28703865 -1.1872513 4729644
0.32117358 -0.28263476 -1.1867507 4795694
0.3266786 -0.27526695 -1.1872996 4595745
0.32369485 -0.27867854 -1.1881435 4731442
0.33127502 -0.27123821 -1.1884193 4068373
0.32887325 -0.27316839 -1.1874892 4331545
0.35855004 -0.26650444 -1.1864364 4533036
0.34162357 -0.26666099 -1.1871332 3874078
0.3353048 -0.26888669 -1.1875036 4003608
0.32328954 -0.31899345 -1.1905967 5847080
0.31954688 -0.31309149 -1.1926627 4402735
0.31729069 -0.30653515 -1.1922705 3938072
0.31678894 -0.30282915 -1.1903851 3871509
0.31679711 -0.29639298 -1.1904159 4071458
0.3173826 -0.29263699 -1.192616 4273205
0.31892729 -0.2873596 -1.1930325 4601912
0.3215113 -0.28172433 -1.1919677 4667705
0.32567823 -0.2762354 -1.1914768 4662823
0.32370242 -0.27853474 -1.1921172 4732213
0.33148423 -0.27121329 -1.1930285 4068630
0.32786396 -0.27411586 -1.1916078 4463132
0.3667973 -0.26998869 -1.1923705 5914928
0.36235145 -0.26773155 -1.1918993 3941926
0.35655555 -0.26607025 -1.1940945 4534064
0.35246828 -0.26542568 -1.1912019 4401451
0.34723574 -0.26553416 -1.1916887 4007462
0.34368184 -0.26611111 -1.194278 3940642
0.33784676 -0.26791131 -1.1926997 3938843
0.33403292 -0.26958933 -1.1906068 4003351
0.32290033 -0.31858072 -1.1971177 5124907
0.31764066 -0.30791494 -1.1976535 4005921
0.31660891 -0.3025617 -1.1978295 3806743
0.31668773 -0.29723191 -1.1981279 4005921
0.31716725 -0.29335275 -1.199942 4273461
0.3187947 -0.28745472 -1.1979222 4667705
0.32075495 -0.28295439 -1.1971717 4732470
0.32686266 -0.27508253 -1.1958101 4530466
0.32378495 -0.27845588 -1.1963973 4665907
0.33145362 -0.27099311 -1.1968064 4002837
0.32910588 -0.27299613 -1.1961216 4266010
0.3600525 -0.26706606 -1.1985637 4468272
0.34132528 -0.26679623 -1.1973529 3939871
0.33573821 -0.26880658 -1.1966852 4004122
0.33434498 -0.26942372 -1.1994326 3938072
0.32263264 -0.31828752 -1.2041799 5123365
0.31945926 -0.31296191 -1.2004194 4404277
0.3180598 -0.3093757 -1.2033188 4138792
0.3175253 -0.29151651 -1.2012966 4339254
0.31886941 -0.28741848 -1.2022811 4600885
0.32115817 -0.28210038 -1.2027299 4731699
0.32586983 -0.27606922 -1.2000993 4598572
0.32435918 -0.27771047 -1.2025262 4665906
0.33166593 -0.27096754 -1.2014838 4068887
0.32812619 -0.27386042 -1.2030827 4398109
0.35351694 -0.26567954 -1.2020745 4402992
0.34796456 -0.26558101 -1.2016288 4073769
0.34424627 -0.26605794 -1.2037866 4007204
0.33831868 -0.26783657 -1.2020216 4004893
0.31940734 -0.31286669 -1.2084169 4336685
0.31722984 -0.30632859 -1.2084274 3873051
0.31660056 -0.30245739 -1.2060304 3938073
0.31666276 -0.29707482 -1.2062672 4070944
0.31732476 -0.29224363 -1.208789 4337456
0.31880766 -0.28725246 -1.2061483 4666421
0.32115439 -0.28196278 -1.2067891 4863542
0.31973433 -0.28481466 -1.2096541 4798006
0.3260628 -0.27589938 -1.2088422 4662309
0.32345313 -0.27879971 -1.2072424 4665907
0.33111066 -0.27120715 -1.2073723 4068631
0.32823712 -0.27371278 -1.2088175 4397852
0.36438152 -0.26866347 -1.2057327 5848363
0.35795656 -0.2665635 -1.206074 4466987
0.34180021 -0.26669207 -1.2066557 4006691
0.33779773 -0.26805559 -1.2079033 4005664
0.3347041 -0.2692897 -1.2085432 4004636
0.32236671 -0.31799576 -1.2113446 5451817
0.31806579 -0.30932185 -1.2116119 4005150
0.31661671 -0.30237496 -1.2144386 3872280
0.31654152 -0.29792136 -1.2141502 4004637
0.31826478 -0.28873429 -1.2123699 4601141
0.32122475 -0.28189296 -1.2111626 4798520
0.32508758 -0.27692658 -1.2133427 4661796
0.32305217 -0.2792486 -1.2139204 4598315
0.33203024 -0.27066499 -1.2147154 4003608
0.32833081 -0.27360904 -1.2131929 4397339
0.36162001 -0.26766443 -1.2110553 4468015
0.35599479 -0.26617464 -1.2142267 4008235
0.35200784 -0.26564547 -1.2118127 4140077
0.34769616 -0.26569265 -1.212028 4073770
0.34480378 -0.2659916 -1.2133917 3876648
0.3372159 -0.26824096 -1.2136638 4006435
0.33333644 -0.26994798 -1.2114974 4004122
0.3222017 -0.31780317 -1.2189889 5387052
0.31925678 -0.31267428 -1.2161487 4201503
0.31759846 -0.30770928 -1.2182043 3938843
0.31716704 -0.29302138 -1.2165494 4271149
0.31857848 -0.28782296 -1.217757 4667192
0.32169324 -0.28106838 -1.2170652 4732214
0.3197704 -0.28460675 -1.2181052 4798521
0.32624382 -0.27571458 -1.2176582 4595232
0.32414836 -0.27799851 -1.2180394 4662309
0.33081073 -0.27146274 -1.2182955 4068888
0.32841906 -0.27349958 -1.2175777 4332059
0.35899729 -0.26677787 -1.2169785 4401194
0.34226727 -0.26657432 -1.2160499 3876647
0.33748704 -0.26822916 -1.2185872 3941156
0.31913963 -0.31251401 -1.2241156 4202787
0.31700796 -0.3059625 -1.2244127 3872794
0.31646019 -0.30212605 -1.222297 3938073
0.3165417 -0.29779178 -1.2226118 4005151
0.31700736 -0.29381132 -1.2244104 4205870
0.31886232 -0.28686488 -1.2230519 4668220
0.32090676 -0.28230837 -1.222434 4798264
0.32527825 -0.27676228 -1.2222852 4661539
0.32322195 -0.27909619 -1.2228488 4662566
0.33237827 -0.27054054 -1.2240683 3938329
0.32854229 -0.27341777 -1.2221217 4331803
0.35278755 -0.26569289 -1.2220874 4403506
0.34736228 -0.26576054 -1.2223985 4009005
0.33765978 -0.26814264 -1.2232043 3941670
0.33369625 -0.26982048 -1.2208104 3939101
0.32205364 -0.31762692 -1.2268028 5384739
0.31775421 -0.30889705 -1.2272949 4070687
0.31755617 -0.29100105 -1.2265301 4338998
0.31808969 -0.28927332 -1.2285907 4470841
0.32144523 -0.28154331 -1.2287107 4731443
0.31983706 -0.28442267 -1.2267907 4734012
0.32642919 -0.27552846 -1.2266099 4529696
0.32432055 -0.27783102 -1.2270051 4661796
0.33109617 -0.27129963 -1.2275028 4003352
0.32862243 -0.27329889 -1.2265359 4266523
0.36379462 -0.26869947 -1.2257444 5716778
0.35705191 -0.26640725 -1.2253731 4139050
0.34207413 -0.26679775 -1.2271694 3942441
0.33547246 -0.26904237 -1.2273086 3940642
0.3214556 -0.3170065 -1.2329988 4595233
0.31882304 -0.31215787 -1.2314233 4202530
0.31669372 -0.30558178 -1.2317828 3938073
0.31628984 -0.30186266 -1.230212 3872280
0.31650952 -0.29762977 -1.2310663 4005151
0.31701675 -0.29365727 -1.2330393 4205355
0.31891704 -0.28669113 -1.2317863 4668219
0.32145485 -0.28141212 -1.232996 4797749
0.3254703 -0.27659431 -1.231355 4661796
0.32338747 -0.2789357 -1.2318838 4662824
0.33273143 -0.27041394 -1.2335653 3938330
0.32877511 -0.27323866 -1.231251 4266524
0.36108389 -0.26775768 -1.2315847 4600885
0.35534245 -0.26622847 -1.2347981 4401708
0.35138839 -0.26576519 -1.2326493 4337199
0.34706789 -0.26586336 -1.2331047 4007720
0.33815598 -0.26807863 -1.2330608 3875363
0.3341029 -0.26972437 -1.2304198 3939358
0.31875622 -0.31204566 -1.2398049 4136479
0.31705713 -0.30700746 -1.2375469 3940900
0.3162384 -0.30171165 -1.2387046 3808029
0.31637818 -0.29849118 -1.239252 3939100
0.31759614 -0.29085132 -1.2352928 4337712
0.31842378 -0.28825647 -1.2385118 4535862
0.32158524 -0.28138867 -1.2377822 4732214
0.31991002 -0.28424072 -1.2356216 4733498
0.3266426 -0.27536091 -1.2357901 4530724
0.32450262 -0.27766728 -1.2361317 4599086
0.33145696 -0.27119213 -1.2371154 4003351
0.32887125 -0.27313045 -1.2357864 4266781
0.35853618 -0.2669476 -1.2381335 4137765
0.34268692 -0.26678428 -1.2373759 3874078
0.33594316 -0.26897785 -1.2371969 3873307
0.32146719 -0.31698695 -1.241636 4400422
0.31745955 -0.30848554 -1.2434877 3940900
0.31658769 -0.29645148 -1.2400726 4005664
0.31723115 -0.29256836 -1.2425932 4270891
0.31926742 -0.28566042 -1.2417932 4667962
0.32158291 -0.28124508 -1.242083 4732727
0.31999013 -0.28406152 -1.2446042 4732985
0.32565758 -0.27641737 -1.2405313 4532523
0.3235622 -0.27877861 -1.2410791 4600114
0.33171093 -0.27119404 -1.2422416 4003608
0.32789165 -0.2741757 -1.2405157 4333344
0.35240954 -0.26599029 -1.2441044 4267294
0.34781268 -0.26590884 -1.2437234 4005150
0.33865616 -0.26801032 -1.2430625 3873307
0.33450136 -0.26961491 -1.2401272 3937815
0.32121521 -0.31670704 -1.2493691 3812138
0.31860524 -0.31185046 -1.2479753 3940642
0.31663963 -0.30537143 -1.2491037 3677984
0.31626689 -0.30163556 -1.2476332 3742493
0.31645626 -0.29731089 -1.2483803 3940642
0.31685436 -0.29430255 -1.2499508 4204071
0.3184818 -0.28809571 -1.2474918 4535348
0.32079446 -0.28252435 -1.2477326 4732214
0.32689553 -0.27522144 -1.2452471 4464674
0.32365611 -0.27870452 -1.245751 4663852
0.33194417 -0.27118161 -1.2473334 3938072
0.32914653 -0.27297828 -1.2452633 4200988
0.36323249 -0.26876965 -1.2465844 5649956
0.35658294 -0.26659366 -1.2469264 4071714
0.34500852 -0.26634216 -1.2457502 3940642
0.34240434 -0.26694101 -1.2485511 3876133
0.33640829 -0.26890171 -1.2471969 3874335
0.31738099 -0.30834535 -1.2520282 3613219
0.31738967 -0.29141039 -1.2520626 4334372
0.31935796 -0.28550386 -1.2509238 4664879
0.32095635 -0.28253418 -1.2527623 4729644
0.32651544 -0.27567187 -1.2524068 4398881
0.32429546 -0.27796566 -1.2525599 4530981
0.33213934 -0.27113235 -1.2523079 3873050
0.3287918 -0.27342615 -1.2524705 4135451
0.36017826 -0.26759335 -1.2516023 4404534
0.35208887 -0.26604795 -1.2549645 4145473
0.34964916 -0.2659145 -1.2543349 4013115
0.339145 -0.26792553 -1.2531559 3746089
0.33493462 -0.2695266 -1.2500952 3874335
0.32081285 -0.31627852 -1.2566226 3876133
0.31847736 -0.31167725 -1.2563533 3482917
0.31657594 -0.30522925 -1.2578048 3614760
0.31622469 -0.30149037 -1.2564093 3677985
0.31638449 -0.29710627 -1.2570441 3939101
0.31679714 -0.2940878 -1.2586837 4200988
0.31848991 -0.28788671 -1.2564027 4530467
0.32099086 -0.28242669 -1.2573198 4663337
0.32608357 -0.27609175 -1.2594663 4333344
0.32336468 -0.27911299 -1.2577295 4530979
0.33230492 -0.27106112 -1.2572125 3807257
0.32833919 -0.27380544 -1.259402 4070172
0.35789257 -0.2669993 -1.2594521 3946295
0.35484117 -0.2664144 -1.256693 4145473
0.34661046 -0.26618826 -1.2556262 3881530
0.34292704 -0.26684797 -1.258738 3814709
0.33683527 -0.26878783 -1.2571892 3745576
0.31828871 -0.31144392 -1.2646099 3484203
0.3172088 -0.30811334 -1.2603192 3681582
0.31740358 -0.29123688 -1.2610931 4267037
0.31884909 -0.28696761 -1.2623188 4464931
0.3210949 -0.28238344 -1.2621915 4531493
0.32501006 -0.27711394 -1.2641293 4333601
0.32294357 -0.27958024 -1.2649686 4399394
0.33243543 -0.27095574 -1.2620093 3742235
0.328484 -0.27373624 -1.2643312 4004378
0.34038728 -0.26752856 -1.2619486 3748402
0.33707702 -0.26874715 -1.2623343 3680810
0.32076645 -0.31620049 -1.2653835 4404782
0.31668001 -0.30639178 -1.2673029 3615018
0.3161279 -0.30129161 -1.2650934 3611935
0.31633818 -0.29692358 -1.2659349 3873050
0.31696269 -0.29293242 -1.268434 4004122
0.31914204 -0.28596848 -1.2680004 4399394
0.32099044 -0.28215185 -1.2662671 4531237
0.32619014 -0.27583107 -1.2687192 4136222
0.32399797 -0.27820331 -1.2690986 4267808
0.33253372 -0.27082655 -1.2667247 3676442
0.3285706 -0.2736181 -1.2690722 3873050
0.3620002 -0.26835984 -1.2658699 5653811
0.35607359 -0.26676905 -1.2691673 4667953
0.35176751 -0.26610953 -1.2660296 4079680
0.34721971 -0.26612607 -1.2661083 3882044
0.34341165 -0.26671711 -1.2689202 3683122
0.33723846 -0.26864767 -1.2672275 3615789
0.32040954 -0.31581599 -1.2730362 4929833
0.3180486 -0.31115958 -1.2727797 4207145
0.31762525 -0.29010549 -1.2710856 3874078
0.31825587 -0.28838357 -1.2736092 4991773
0.32110816 -0.2821185 -1.2712595 4137249
0.32520497 -0.27694145 -1.2738265 4991260
0.32311693 -0.27942151 -1.2746558 5057309
0.33058077 -0.27204213 -1.2724104 4268057
0.3275215 -0.2746585 -1.2738975 4991259
0.35982552 -0.26785743 -1.2743454 5323561
0.34079766 -0.26735988 -1.2719783 3550251
0.337479 -0.26860216 -1.2724371 3877156
0.33422253 -0.26990488 -1.2731578 4204319
