# .PCD v0.7 - Point Cloud Data file format
VERSION 0.7
FIELDS x y z rgb
SIZE 4 4 4 4
TYPE F F F U
COUNT 1 1 1 1
WIDTH 725
HEIGHT 1
VIEWPOINT 0 0 0 1 0 0 0
POINTS 725
DATA ascii
0.51580101 -0.31634375 -1.1887119 7759188
0.51258737 -0.31634581 -1.1887197 8089185
0.50723118 -0.3163493 -1.1887329 8419182
0.50187486 -0.31635281 -1.188746 8749180
0.49758974 -0.31635559 -1.1887565 9013641
0.49437585 -0.3163577 -1.1887643 9013641
0.62975961 -0.31005207 -1.1892582 8353389
0.59507507 -0.3120124 -1.1885521 7758930
0.59186232 -0.31201446 -1.18856 8088927
0.58757871 -0.3120172 -1.1885705 8419182
0.58222401 -0.31202069 -1.1885836 8617335
0.57686925 -0.31202412 -1.1885967 9013641
0.57258523 -0.31202686 -1.1886072 9013641
0.56723028 -0.31203035 -1.1886204 9013641
0.5618751 -0.31203377 -1.1886336 9013641
0.55759096 -0.31203651 -1.1886441 9013641
0.55223149 -0.31310996 -1.1886486 8485490
0.54687613 -0.31311345 -1.1886617 8683644
0.54259169 -0.31311622 -1.1886722 8683643
0.53723598 -0.31311965 -1.1886853 9013641
0.53188026 -0.31312311 -1.1886984 9013641
0.52759564 -0.31312591 -1.188709 9013641
0.52223957 -0.31312937 -1.1887221 9013641
0.51688349 -0.31313279 -1.1887351 9013641
0.51259857 -0.31313556 -1.1887457 9013641
0.50724226 -0.31313902 -1.1887589 9013641
0.50188577 -0.31314251 -1.188772 9013641
0.49760064 -0.31314528 -1.1887825 9013641
0.49224395 -0.31314877 -1.1887957 9013641
0.48796216 -0.31208134 -1.1888148 9013641
0.63229698 -0.30595022 -1.1899954 8816262
0.62704068 -0.30748838 -1.1886793 8815745
0.62186402 -0.30771551 -1.1885211 8815488
0.61758071 -0.30771825 -1.1885315 9013641
0.61222661 -0.30772161 -1.1885448 9013641
0.60687226 -0.30772504 -1.188558 9013641
0.60258877 -0.30772772 -1.1885684 9013641
0.59723419 -0.30773115 -1.1885815 9013641
0.59187961 -0.30773455 -1.1885946 9013641
0.58759582 -0.30773726 -1.1886051 9013641
0.58224094 -0.30774069 -1.1886182 9013641
0.576886 -0.30774406 -1.1886314 9013641
0.57260191 -0.3077468 -1.1886419 9013641
0.56724679 -0.30775017 -1.1886551 9013641
0.5618915 -0.30775356 -1.1886681 9013641
0.55760717 -0.30775633 -1.1886786 9013641
0.55225164 -0.3077597 -1.1886917 9013641
0.54689604 -0.3077631 -1.1887051 9013641
0.54261142 -0.30776581 -1.1887153 9013641
0.53725559 -0.30776921 -1.1887286 9013641
0.53189963 -0.30777264 -1.1887418 9013641
0.52761477 -0.30777535 -1.1887522 9013641
0.52225864 -0.30777878 -1.1887653 9013641
0.51690233 -0.30778214 -1.1887785 9013641
0.51261723 -0.30778486 -1.1887889 9013641
0.50726074 -0.30778825 -1.1888021 9013641
0.50190407 -0.30779168 -1.1888152 9013641
0.49761873 -0.30779439 -1.1888257 9013641
0.49226195 -0.30779779 -1.1888388 9013641
0.48690492 -0.30780119 -1.1888521 9013641
0.48369426 -0.30673301 -1.1888685 8816262
0.63215572 -0.30266207 -1.1897295 8750469
0.62729889 -0.30239022 -1.188661 8947848
0.62188667 -0.30236563 -1.1885643 9013641
0.6176033 -0.30236831 -1.1885749 9013641
0.6122489 -0.30237165 -1.188588 9013641
0.60689437 -0.30237502 -1.1886013 9013641
0.60261071 -0.30237767 -1.1886117 9013641
0.597256 -0.30238101 -1.1886249 9013641
0.59190118 -0.30238438 -1.188638 9013641
0.58761728 -0.30238703 -1.1886485 9013641
0.58226222 -0.30239037 -1.1886616 9013641
0.57690704 -0.3023937 -1.1886747 9013641
0.57262278 -0.30239636 -1.1886852 9013641
0.56726748 -0.30239972 -1.1886983 9013641
0.56191194 -0.30240306 -1.1887114 9013641
0.5576275 -0.30240571 -1.1887219 9013641
0.55227172 -0.30240905 -1.188735 9013641
0.54691595 -0.30241239 -1.1887481 9013641
0.54263127 -0.30241507 -1.1887587 9013641
0.53727514 -0.30241844 -1.1887718 9013641
0.531919 -0.30242178 -1.188785 9013641
0.52763402 -0.30242446 -1.1887956 9013641
0.52227765 -0.30242777 -1.1888087 9013641
0.51692116 -0.30243114 -1.1888219 9013641
0.51263589 -0.30243379 -1.1888323 9013641
0.50727922 -0.30243713 -1.1888455 9013641
0.50192237 -0.30244046 -1.1888586 9013641
0.49763685 -0.30244315 -1.1888691 9013641
0.49227983 -0.30244648 -1.1888824 9013641
0.48692271 -0.30244982 -1.1888953 9013641
0.4826369 -0.3024525 -1.188906 8684676
0.63211972 -0.29727867 -1.1896619 8684676
0.62730378 -0.2981033 -1.1886702 8947848
0.62190485 -0.29808545 -1.1885991 9013641
0.6176213 -0.29808807 -1.1886095 9013641
0.61226672 -0.29809138 -1.1886226 9013641
0.60691208 -0.29809466 -1.1886358 9013641
0.60262829 -0.29809731 -1.1886463 9013641
0.59727341 -0.29810062 -1.1886595 9013641
0.59191847 -0.2981039 -1.1886725 9013641
0.58763438 -0.29810652 -1.1886832 9013641
0.58227915 -0.2981098 -1.1886963 9013641
0.57692385 -0.29811311 -1.1887094 9013641
0.57263952 -0.29811576 -1.18872 9013641
0.56728399 -0.29811904 -1.188733 9013641
0.56192833 -0.29812235 -1.1887462 9013641
0.55764371 -0.29812497 -1.1887567 9013641
0.55228788 -0.29812828 -1.1887698 9013641
0.54693192 -0.29813156 -1.1887829 9013641
0.54264706 -0.29813421 -1.1887934 9013641
0.53729087 -0.29813752 -1.1888065 9013641
0.53193456 -0.29814079 -1.1888196 9013641
0.5276494 -0.29814345 -1.1888303 9013641
0.52229291 -0.29814669 -1.1888434 9013641
0.5169363 -0.29815 -1.1888565 9013641
0.51265085 -0.29815266 -1.188867 9013641
0.507294 -0.29815596 -1.1888801 9013641
0.50193703 -0.29815924 -1.1888933 9013641
0.49765137 -0.29816186 -1.1889038 9013641
0.49229419 -0.29816517 -1.1889168 9013641
0.48693693 -0.29816848 -1.18893 9013641
0.482651 -0.2981711 -1.1889405 8750469
0.632236 -0.29303983 -1.1898806 8618883
0.62735569 -0.29276592 -1.1887686 8947848
0.62192744 -0.29273483 -1.1886424 9013641
0.61764377 -0.29273745 -1.1886529 9013641
0.61228901 -0.29274067 -1.188666 9013641
0.60693419 -0.29274389 -1.1886791 9013641
0.60265023 -0.29274651 -1.1886897 9013641
0.59729517 -0.29274973 -1.1887027 9013641
0.59193999 -0.29275298 -1.1887158 9013641
0.58765578 -0.29275557 -1.1887263 9013641
0.58230036 -0.29275882 -1.1887395 9013641
0.57694489 -0.29276201 -1.1887527 9013641
0.57266039 -0.29276463 -1.1887631 9013641
0.56730461 -0.29276785 -1.1887764 9013641
0.56194878 -0.29277107 -1.1887894 9013641
0.55766404 -0.29277369 -1.1887999 9013641
0.55230802 -0.29277691 -1.1888131 9013641
0.54695183 -0.29278013 -1.1888262 9013641
0.54266679 -0.29278272 -1.1888367 9013641
0.53731036 -0.29278597 -1.1888499 9013641
0.53195393 -0.29278919 -1.1888629 9013641
0.52766865 -0.29279175 -1.1888734 9013641
0.52231187 -0.29279503 -1.1888866 9013641
0.51695508 -0.29279825 -1.1888999 9013641
0.5126695 -0.29280084 -1.1889104 9013641
0.50731248 -0.29280412 -1.1889234 9013641
0.50195533 -0.29280734 -1.1889366 9013641
0.49766952 -0.2928099 -1.1889471 9013641
0.49231213 -0.29281315 -1.1889603 9013641
0.48695463 -0.2928164 -1.1889734 9013641
0.48288152 -0.29324704 -1.1889799 8618883
0.62745053 -0.28744724 -1.1889478 8421504
0.62195015 -0.28738391 -1.1886857 8553090
0.61766624 -0.28738645 -1.1886961 8684676
0.61231142 -0.28738964 -1.1887093 8882055
0.60695636 -0.2873928 -1.1887224 9013641
0.60267222 -0.28739536 -1.188733 9013641
0.59731692 -0.28739852 -1.1887461 9013641
0.59196162 -0.28740168 -1.1887592 9013641
0.58767718 -0.28740421 -1.1887697 9013641
0.58232158 -0.2874074 -1.1887828 9013641
0.57696593 -0.28741059 -1.188796 9013641
0.57268131 -0.28741312 -1.1888065 9013641
0.56732529 -0.28741631 -1.1888196 9013641
0.56196928 -0.28741947 -1.1888328 9013641
0.55768436 -0.287422 -1.1888433 9013641
0.55232817 -0.28742519 -1.1888564 9013641
0.5469718 -0.28742838 -1.1888696 9013641
0.54268658 -0.28743088 -1.18888 9013641
0.53733003 -0.28743407 -1.1888932 9013641
0.5319733 -0.28743726 -1.1889063 9013641
0.52768791 -0.28743982 -1.1889169 9013641
0.522331 -0.28744295 -1.18893 9013641
0.51697391 -0.28744614 -1.1889431 9013641
0.51268822 -0.28744867 -1.1889536 9013641
0.50733101 -0.28745186 -1.1889669 9013641
0.50197363 -0.28745502 -1.1889799 9013641
0.4976877 -0.28745759 -1.1889905 9013641
0.49233007 -0.28746074 -1.1890035 9013641
0.48697242 -0.28746393 -1.1890168 9013641
0.48375425 -0.2885364 -1.189016 7829367
0.59219861 -0.28429818 -1.1892347 7829367
0.58769006 -0.28419322 -1.1887958 7829367
0.58233428 -0.28419635 -1.1888088 8421504
0.5769785 -0.28419954 -1.188822 8684676
0.57269382 -0.28420204 -1.1888325 9013641
0.56733775 -0.28420517 -1.1888456 9013641
0.56198156 -0.2842083 -1.1888587 9013641
0.55769658 -0.2842108 -1.1888692 9013641
0.5523932 -0.28316841 -1.1889961 8421504
0.54698771 -0.28314665 -1.1889042 8553090
0.54270244 -0.28314915 -1.1889148 8684676
0.53734565 -0.28315228 -1.1889278 8882055
0.5319888 -0.28315538 -1.1889409 9013641
0.52770329 -0.28315789 -1.1889514 9013641
0.5223462 -0.28316104 -1.1889647 9013641
0.51681828 -0.2825444 -1.1890789 8750469
0.51270318 -0.28316668 -1.1889884 9013641
0.50734574 -0.28316978 -1.1890014 9013641
0.50198823 -0.28317291 -1.1890146 9013641
0.49770218 -0.28317541 -1.1890252 9013641
0.49234444 -0.28317854 -1.1890383 8882055
0.48805463 -0.28425166 -1.1890401 9013641
0.51271439 -0.27995497 -1.1890142 7829367
0.50735682 -0.2799581 -1.1890274 8224125
0.50199926 -0.27996117 -1.1890405 8421504
0.49771312 -0.27996367 -1.1890512 8421504
0.4944984 -0.27996552 -1.189059 7829367
0.63254368 -0.31036529 -1.1904596 7627601
0.63565809 -0.30761129 -1.1922725 8289918
0.63244003 -0.30816692 -1.1902646 8750469
0.48261657 -0.30633795 -1.1915035 7895160
0.6355415 -0.30217808 -1.1920539 8224125
0.48108825 -0.30135334 -1.1930447 7171437
0.63553333 -0.29679731 -1.1920385 8158332
0.48083955 -0.29689407 -1.1924279 6908265
0.63567168 -0.29255953 -1.1922981 8158332
0.63234997 -0.29094544 -1.1900951 8618883
0.48174754 -0.29234999 -1.1929041 6710886
0.63582045 -0.28832468 -1.1925771 8224125
0.63255394 -0.28781733 -1.1904789 8289918
0.61546963 -0.28563833 -1.1948407 6710886
0.61178088 -0.28542587 -1.1939518 6710886
0.60687053 -0.28514302 -1.1927688 6974058
0.4857547 -0.28542134 -1.193933 6710886
0.48382151 -0.28799799 -1.19271 6710886
0.60197002 -0.28486073 -1.1915879 7303023
0.59707952 -0.28457919 -1.1904101 7566195
0.57665402 -0.28347668 -1.1948159 6710886
0.57299423 -0.28326589 -1.1939273 6710886
0.56812286 -0.28298536 -1.192745 6974058
0.56326115 -0.28270543 -1.191565 7303023
0.55840904 -0.28242603 -1.1903875 7566195
0.53663003 -0.28124577 -1.1944965 6710886
0.5317924 -0.28096715 -1.1933131 6710886
0.52696431 -0.28068906 -1.192132 7303023
0.52214575 -0.28041154 -1.1909533 7303023
0.51853782 -0.28020373 -1.1900707 7829367
0.49251142 -0.28066766 -1.1920412 6974058
0.48782519 -0.28351876 -1.1919752 6908265
0.64115953 -0.31030831 -1.1985354 7298636
0.48633599 -0.3116433 -1.1953617 8092539
0.64119077 -0.30707961 -1.1985937 8026746
0.48350847 -0.30781913 -1.1972618 7566195
0.64123505 -0.30277544 -1.1986766 8026746
0.48137686 -0.30288965 -1.1991255 7237230
0.64129323 -0.29739571 -1.1987853 8026746
0.48089135 -0.29717985 -1.1979162 6908265
0.6413461 -0.29201257 -1.1988841 8026746
0.48200965 -0.29180169 -1.1980128 6710886
0.64139855 -0.28771001 -1.1989822 7697781
0.63742042 -0.28629905 -1.1976044 6710886
0.63309151 -0.28629571 -1.1975905 6710886
0.62761962 -0.28626361 -1.1974562 6710886
0.62163079 -0.28599328 -1.1963253 6710886
0.61793214 -0.28578019 -1.1954341 6710886
0.48502481 -0.28626195 -1.1974492 6710886
0.48332682 -0.28869864 -1.1985961 6710886
0.59626728 -0.28460678 -1.199579 6642771
0.59257823 -0.2843942 -1.1986831 6642771
0.58766758 -0.28411126 -1.1974905 6644060
0.58276671 -0.28382891 -1.1963004 6710886
0.57909715 -0.28361747 -1.1954092 6710886
0.55729806 -0.28243658 -1.199554 6708564
0.55363822 -0.28222567 -1.1986582 6708564
0.5475505 -0.28187481 -1.1971681 6710112
0.54147732 -0.28152496 -1.1956823 6710886
0.51712006 -0.28019679 -1.1992307 7303023
0.49250948 -0.28081459 -1.1972586 6710886
0.48842883 -0.28311515 -1.1978486 6710886
0.51228261 -0.27991807 -1.1980379 6974058
0.50745487 -0.27963993 -1.1968474 6710886
0.50263667 -0.27936235 -1.1956594 6710886
0.49741837 -0.27946138 -1.1960832 6710886
0.48298582 -0.30715734 -1.2031336 7566195
0.48121428 -0.30198163 -1.2041324 7171437
0.48083979 -0.29740417 -1.2031953 6908265
0.48163798 -0.29289043 -1.202482 6710886
0.60366267 -0.2850329 -1.201375 6574657
0.48558378 -0.28570148 -1.2041931 6710886
0.48363984 -0.28845006 -1.2020633 6710886
0.6011951 -0.28489071 -1.2007757 6574657
0.59872997 -0.28474867 -1.2001771 6574657
0.563411 -0.28278887 -1.2010503 6706241
0.55974132 -0.2825774 -1.200152 6706242
0.5256089 -0.28068605 -1.2013248 6772035
0.52196729 -0.28047609 -1.2004263 7300701
0.49231046 -0.28085619 -1.2020531 6710886
0.48764265 -0.28376487 -1.2021285 6710886
0.4989284 -0.27935648 -1.2049389 6710886
0.48565045 -0.31103465 -1.2097713 7763574
0.64713335 -0.30779621 -1.2056361 7894386
0.48245174 -0.30602476 -1.2072289 7500402
0.64719129 -0.30238521 -1.205744 8026746
0.4812097 -0.30225649 -1.2095819 7171437
0.64723718 -0.29805547 -1.2058296 8026746
0.48090816 -0.29770496 -1.208824 6908265
0.64729029 -0.29264048 -1.2059287 8026746
0.48206463 -0.29163206 -1.2062602 6710886
0.64698607 -0.28702495 -1.2067142 7368816
0.64244759 -0.28637922 -1.2070496 6710886
0.63808495 -0.28637606 -1.2070363 6710886
0.63372195 -0.28637266 -1.207022 6644060
0.48396757 -0.2879121 -1.2073907 6710886
0.49227899 -0.28098893 -1.2072885 6710886
0.48825774 -0.28336328 -1.2081203 6710886
0.50270748 -0.27964419 -1.2061799 6710886
0.49626631 -0.27969438 -1.2063963 6710886
0.48885301 -0.31387216 -1.2123004 8421504
0.65315717 -0.30743244 -1.2127823 7894386
0.48440504 -0.30945069 -1.2121166 7697781
0.65321755 -0.30199006 -1.2128943 8026746
0.48147297 -0.30310717 -1.2129979 7237230
0.65326148 -0.29763341 -1.212976 8026746
0.48087013 -0.29794228 -1.2142351 6908265
0.6533162 -0.29218665 -1.2130775 8026746
0.48182002 -0.2925925 -1.2124934 6710886
0.65337241 -0.28783414 -1.2131819 8026746
0.48580247 -0.28557408 -1.2128794 6710886
0.48427206 -0.28750244 -1.2117839 6710886
0.49210393 -0.28104675 -1.2122294 6710886
0.48808706 -0.28344154 -1.2131182 6710886
0.50080818 -0.27944446 -1.2147717 6710886
0.49864978 -0.27946311 -1.2148529 6710886
0.6592288 -0.30925432 -1.219969 8026746
0.48310226 -0.30742812 -1.2171035 7566195
0.4816561 -0.3039152 -1.2162197 7303023
0.48081377 -0.29817063 -1.2196492 6974058
0.48197579 -0.29203933 -1.2170269 6710886
0.6552422 -0.28646272 -1.2166537 7039851
0.65194774 -0.28646195 -1.2166504 6710886
0.64755464 -0.28646067 -1.216645 6710886
0.64315772 -0.28645769 -1.2166324 6710886
0.63985944 -0.28645515 -1.2166215 6574657
0.48383749 -0.28825188 -1.2180313 6710886
0.49524042 -0.28001404 -1.2172478 6710886
0.49204358 -0.28116566 -1.2174855 6710886
0.48808351 -0.28361556 -1.2185695 6710886
0.50362289 -0.27979055 -1.2162763 6710886
0.49676204 -0.27963433 -1.2155972 6710886
0.48612174 -0.31155986 -1.2247065 8092539
0.6592536 -0.30706477 -1.2200149 8026746
0.48227802 -0.30570033 -1.2233635 7368816
0.65930229 -0.30268469 -1.2201051 8026746
0.48118067 -0.30170193 -1.2205799 7171437
0.65935761 -0.29720628 -1.2202075 8026746
0.48099783 -0.29608342 -1.2201161 6842472
0.65940052 -0.2928223 -1.2202868 8026746
0.48196289 -0.2922639 -1.2225641 6710886
0.65945607 -0.28844324 -1.2203896 7829367
0.48602548 -0.2854436 -1.221687 6710886
0.48412836 -0.28783035 -1.2224623 6710886
0.49189383 -0.28124046 -1.2225791 6710886
0.48837796 -0.28332543 -1.2220579 6710886
0.50042695 -0.27948797 -1.2245654 6710886
0.49836656 -0.27957156 -1.2249316 6710886
0.66540951 -0.30779344 -1.2273092 7828334
0.48407775 -0.30905658 -1.2279288 7566195
0.66547197 -0.30228594 -1.2274243 8026746
0.48149046 -0.30328456 -1.2269812 7237230
0.66552687 -0.29677409 -1.2275256 8026746
0.48096251 -0.29742262 -1.2256359 6908265
0.66557091 -0.29236397 -1.2276069 8026746
0.48188528 -0.29245389 -1.2279873 6710886
0.66562724 -0.28795856 -1.2277107 7432287
0.66159934 -0.28654557 -1.2264034 6643804
0.65717137 -0.28654447 -1.2263986 6710886
0.65274346 -0.28654337 -1.2263938 6710886
0.64942014 -0.28654149 -1.2263858 6710886
0.48523882 -0.28627992 -1.2252663 6710886
0.4840562 -0.28799564 -1.227874 6710886
0.49500054 -0.28016818 -1.2275456 6710886
0.49182731 -0.28135869 -1.2279141 6710886
0.48775136 -0.28393638 -1.2278827 6710886
0.50307363 -0.27973112 -1.2256308 6710886
0.49648473 -0.27975649 -1.2257419 6710886
0.48319399 -0.30768913 -1.2313223 7566195
0.48131135 -0.3023487 -1.23219 7237230
0.48091257 -0.29765481 -1.2311691 6908265
0.48155212 -0.29360169 -1.2328064 6710886
0.485852 -0.28572997 -1.2324294 6710886
0.48349243 -0.28898293 -1.2320828 6710886
0.49167991 -0.2814374 -1.2331069 6710886
0.48818055 -0.28356734 -1.2326944 6710886
0.50003952 -0.27953219 -1.2345182 6710886
0.48643428 -0.31198898 -1.2395796 8355711
0.48237497 -0.30595013 -1.2377765 7434609
0.48114711 -0.30141515 -1.2374854 7105644
0.48098502 -0.29684907 -1.2370685 6842472
0.48204148 -0.29220405 -1.2378749 6710886
0.48579115 -0.28588939 -1.2379407 6710886
0.48335913 -0.28912252 -1.2374325 6710886
0.4940185 -0.28054047 -1.238971 6710886
0.48862028 -0.2833544 -1.2366204 6710886
0.5027073 -0.27977729 -1.2356006 6710886
0.4971661 -0.27979559 -1.2356815 6710886
0.48478457 -0.31012785 -1.2410817 7763574
0.48374015 -0.30865097 -1.2441546 7566195
0.48144463 -0.30300796 -1.2440233 7237230
0.48103631 -0.29714322 -1.2429684 6842472
0.48231983 -0.29163736 -1.2433898 6710886
0.48567545 -0.28602141 -1.2433624 6710886
0.48415145 -0.28802645 -1.2423348 6710886
0.50805223 -0.28150362 -1.2432247 7829367
0.49207023 -0.28134319 -1.2425162 6710886
0.4884758 -0.28345132 -1.2419306 6710886
0.49972177 -0.27961966 -1.2448233 6710886
0.48302621 -0.30738038 -1.2481101 7566195
0.48104647 -0.30079493 -1.2488165 7105644
0.48097652 -0.29737175 -1.2486348 6908265
0.48193637 -0.29276755 -1.2482073 6710886
0.48410779 -0.28821409 -1.2479973 6710886
0.50624156 -0.28074428 -1.24983 7829367
0.49601865 -0.28006503 -1.246806 6710886
0.49268132 -0.28120834 -1.2468956 6710886
0.48844534 -0.28361276 -1.2475711 6710886
0.50233483 -0.27982417 -1.2457339 6710886
0.4977859 -0.27979395 -1.2455993 6710886
0.48247519 -0.30620798 -1.2525256 7434609
0.48151222 -0.30334151 -1.2500256 7303023
0.48103777 -0.29767731 -1.2546706 6908265
0.48237962 -0.29146034 -1.2522774 6710886
0.48590189 -0.28589219 -1.2526252 6710886
0.48432443 -0.28788522 -1.2514646 6710886
0.49246478 -0.28124785 -1.2520719 6710886
0.48827624 -0.28369844 -1.252918 6710886
0.48741946 -0.31285584 -1.2565296 8092539
0.48321334 -0.30739668 -1.2573858 7500402
0.48124567 -0.30233559 -1.2552129 7171437
0.48199353 -0.29259777 -1.2571635 6710886
0.48425147 -0.28805465 -1.2571368 6710886
0.50562656 -0.28065121 -1.2595323 7829367
0.49577957 -0.28022331 -1.257612 6710886
0.49244162 -0.28139281 -1.2577755 6710886
0.4882673 -0.28387573 -1.2587175 6710886
0.50195634 -0.27987188 -1.2560349 6710886
0.49846458 -0.27982017 -1.2558028 6710886
0.48341212 -0.3082464 -1.2608635 7895160
0.48141417 -0.30273402 -1.2615893 7237230
0.48098832 -0.29791701 -1.2604733 6908265
0.48198593 -0.29283583 -1.2630876 7039851
0.48613298 -0.28575975 -1.2620213 6710886
0.48366022 -0.28905696 -1.2615106 6710886
0.49225062 -0.28144962 -1.2631155 6974058
0.48857921 -0.28358102 -1.2624587 6710886
0.51707637 -0.34585911 -1.2653072 8485232
0.5119431 -0.34643203 -1.2653152 8881282
0.50680971 -0.34700495 -1.2653232 8881538
0.50224829 -0.34700799 -1.2653344 9013641
0.4976868 -0.34701106 -1.2653455 9013641
0.4931252 -0.3470141 -1.2653567 8881539
0.48799509 -0.34644806 -1.2653737 8749437
0.48286489 -0.34588203 -1.265391 9013641
0.526214 -0.34129724 -1.2653217 8485488
0.52241045 -0.34205905 -1.265325 9013641
0.51822799 -0.34244147 -1.2653321 9013641
0.51252627 -0.34244528 -1.2653461 9013641
0.50682449 -0.34244907 -1.26536 9013641
0.50226295 -0.34245211 -1.2653712 9013641
0.49770129 -0.34245509 -1.2653823 9013641
0.49313959 -0.34245813 -1.2653935 9013641
0.48743734 -0.34246191 -1.2654074 9013641
0.48173499 -0.3424657 -1.2654215 9013641
0.47755432 -0.34208882 -1.2654349 9013641
0.47375491 -0.34133193 -1.2654504 9013641
0.53078294 -0.33901626 -1.265329 7956821
0.52736199 -0.33901849 -1.2653372 9013641
0.5228045 -0.33788246 -1.2653577 9013641
0.51824307 -0.33788547 -1.2653689 9013641
0.51254123 -0.33788922 -1.2653829 9013641
0.50683928 -0.33789292 -1.2653968 9013641
0.50227761 -0.3378959 -1.265408 9013641
0.49771583 -0.33789888 -1.2654192 9013641
0.49315399 -0.33790186 -1.2654305 9013641
0.48745155 -0.33790562 -1.2654444 9013641
0.48174906 -0.33790934 -1.2654585 9013641
0.47718689 -0.33791232 -1.2654697 9013641
0.47262469 -0.33791533 -1.2654809 9013641
0.46844375 -0.33753833 -1.2654942 8353903
0.51787686 -0.33370912 -1.2654037 8882055
0.51255625 -0.33333287 -1.2654198 9013641
0.50685406 -0.3333365 -1.2654338 9013641
0.50229222 -0.33333945 -1.265445 9013641
0.49773034 -0.33334243 -1.2654562 9013641
0.49316835 -0.33334535 -1.2654674 9013641
0.48746574 -0.33334902 -1.2654814 9013641
0.48176306 -0.33335271 -1.2654953 9013641
0.47720084 -0.3333557 -1.2655065 9013641
0.47263849 -0.33335865 -1.2655177 9013641
0.46807608 -0.33336157 -1.2655289 9013641
0.46389487 -0.33298454 -1.2655421 8816262
0.51142693 -0.32991612 -1.2654502 8882055
0.50664294 -0.32809645 -1.2654768 8882055
0.50231057 -0.32764351 -1.2654911 9013641
0.49774849 -0.3276464 -1.2655023 9013641
0.49318632 -0.32764933 -1.2655134 9013641
0.4874835 -0.32765293 -1.2655275 9013641
0.48178062 -0.32765654 -1.2655414 9013641
0.47721824 -0.32765946 -1.2655526 9013641
0.47265568 -0.32766235 -1.2655638 9013641
0.46809313 -0.32766524 -1.2655749 9013641
0.46238977 -0.32766888 -1.2655891 8947848
0.45823726 -0.32682365 -1.2667342 8487297
0.50118464 -0.32308719 -1.2655307 9013641
0.49776661 -0.32195005 -1.2655485 8816262
0.49320433 -0.32195288 -1.2655596 9013641
0.48750129 -0.32195646 -1.2655736 9013641
0.48179817 -0.32196 -1.2655876 9013641
0.47723559 -0.32196283 -1.2655987 9013641
0.47267291 -0.32196569 -1.2656099 9013641
0.46811014 -0.32196853 -1.2656211 9013641
0.46240661 -0.3219721 -1.2656351 9013641
0.45670295 -0.32197565 -1.2656491 8816262
0.4547267 -0.32185954 -1.269695 7895160
0.49321508 -0.31853485 -1.2655873 8882055
0.48751554 -0.31739894 -1.2656105 9013641
0.48181224 -0.31740245 -1.2656244 9013641
0.4772495 -0.31740525 -1.2656357 9013641
0.47268674 -0.31740806 -1.2656468 9013641
0.46812379 -0.31741083 -1.265658 9013641
0.46242011 -0.31741437 -1.265672 9013641
0.45671624 -0.31741789 -1.265686 9013641
0.45329392 -0.31741998 -1.2656944 8618883
0.48600766 -0.31322193 -1.265648 8750469
0.48182625 -0.3128446 -1.2656614 9013641
0.47726342 -0.31284738 -1.2656724 9013641
0.47270048 -0.31285015 -1.2656838 9013641
0.46813744 -0.31285292 -1.2656949 9013641
0.46243358 -0.31285641 -1.2657089 9013641
0.45672959 -0.31285983 -1.265723 9013641
0.45232812 -0.31297529 -1.2661884 8553090
0.4818083 -0.30826616 -1.2656143 8816262
0.47727734 -0.30828926 -1.2657095 9013641
0.47271428 -0.308292 -1.2657207 9013641
0.46815112 -0.30829471 -1.2657318 9013641
0.46244708 -0.30829814 -1.2657458 9013641
0.45674294 -0.30830157 -1.2657599 9013641
0.45176011 -0.30825782 -1.2665207 8553090
0.44964501 -0.30548409 -1.2682846 7631988
0.48071715 -0.30258921 -1.2657472 8684676
0.47729471 -0.3025912 -1.2657555 9013641
0.4727315 -0.30259389 -1.2657667 9013641
0.46816817 -0.3025966 -1.2657781 9013641
0.46246395 -0.30259991 -1.2657919 9013641
0.45675954 -0.30260321 -1.265806 9013641
0.45219591 -0.30260593 -1.2658172 9013641
0.44932538 -0.30183715 -1.267383 7500402
0.48073462 -0.2968908 -1.2657933 8158332
0.47731212 -0.29689276 -1.2658017 9013641
0.4727487 -0.29689538 -1.2658129 9013641
0.46818525 -0.29689801 -1.2658241 9013641
0.46248075 -0.29690132 -1.265838 9013641
0.45677617 -0.29690462 -1.265852 9013641
0.45221239 -0.29690722 -1.2658632 9013641
0.44924453 -0.29721004 -1.2671549 7434609
0.54805052 -0.29229367 -1.2656652 8881282
0.54234767 -0.29229692 -1.2656792 9013641
0.5366447 -0.29230013 -1.2656931 9013641
0.5320822 -0.29230273 -1.2657044 8684676
0.52752352 -0.29116562 -1.2657248 8421504
0.48074865 -0.29233178 -1.2658303 9013641
0.47732607 -0.29233372 -1.2658386 9013641
0.47276253 -0.29233631 -1.2658498 9013641
0.4681989 -0.29233891 -1.265861 9013641
0.46249428 -0.29234213 -1.265875 9013641
0.45678952 -0.29234535 -1.265889 9013641
0.45222563 -0.29234797 -1.2659001 9013641
0.4495725 -0.29285103 -1.2680801 7039851
0.5480665 -0.28773496 -1.265702 8551541
0.54236346 -0.28773814 -1.2657161 9013641
0.53666031 -0.28774133 -1.2657301 9013641
0.5320977 -0.28774387 -1.2657413 9013641
0.52753496 -0.28774643 -1.2657526 9013641
0.52297223 -0.28774896 -1.2657636 8684676
0.5195539 -0.28661111 -1.2657813 9013641
0.48532408 -0.28662676 -1.2658504 7829367
0.48190355 -0.28777188 -1.2658644 8816262
0.47733998 -0.28777441 -1.2658756 9013641
0.47277629 -0.28777695 -1.2658868 9013641
0.46821257 -0.28777951 -1.265898 9013641
0.46250775 -0.2877827 -1.2659119 9013641
0.45680285 -0.28778586 -1.2659259 9013641
0.45180339 -0.28817764 -1.2666417 8289918
0.54694188 -0.28317663 -1.2657418 8749180
0.54237926 -0.28317913 -1.2657529 9013641
0.53667599 -0.28318226 -1.265767 9013641
0.53211319 -0.28318477 -1.2657782 9013641
0.5275504 -0.28318727 -1.2657894 9013641
0.52298748 -0.28318977 -1.2658006 9013641
0.51774079 -0.28296468 -1.2658154 9013641
0.51272184 -0.28281549 -1.2658288 9013641
0.48716199 -0.28297883 -1.2658784 8618883
0.48191765 -0.28321233 -1.2659013 9013641
0.4773539 -0.28321481 -1.2659124 9013641
0.47279012 -0.28321731 -1.2659237 9013641
0.46822625 -0.28321984 -1.2659349 9013641
0.46252128 -0.28322294 -1.2659489 9013641
0.4568162 -0.2832261 -1.2659628 9013641
0.45248789 -0.28337634 -1.266636 8092539
0.54695386 -0.27975723 -1.2657695 7890517
0.54239905 -0.27747998 -1.265799 8881539
0.53669554 -0.27748308 -1.2658131 9013641
0.53213263 -0.27748549 -1.2658243 9013641
0.52756959 -0.27748796 -1.2658354 9013641
0.52300656 -0.27749041 -1.2658467 9013641
0.51730263 -0.27749351 -1.2658608 9013641
0.51159853 -0.27749655 -1.2658747 9013641
0.50703514 -0.27749899 -1.2658859 9013641
0.50247175 -0.27750143 -1.2658972 8618883
0.49790815 -0.27750391 -1.2659082 8684676
0.49334458 -0.27750635 -1.2659193 8882055
0.48763993 -0.27750942 -1.2659335 9013641
0.48193514 -0.27751246 -1.2659475 9013641
0.47737125 -0.27751493 -1.2659587 9013641
0.47280738 -0.27751741 -1.2659699 9013641
0.46824327 -0.27751985 -1.2659808 9013641
0.46253806 -0.27752292 -1.2659949 9013641
0.45683277 -0.27752599 -1.266009 8816262
0.45394325 -0.27785245 -1.2675076 7434609
0.54089653 -0.27216122 -1.2658459 9013641
0.53671515 -0.27178344 -1.2658594 9013641
0.532152 -0.27178586 -1.2658705 9013641
0.52758884 -0.27178824 -1.2658818 9013641
0.52302563 -0.27179065 -1.2658929 9013641
0.51732141 -0.27179366 -1.2659068 9013641
0.51161712 -0.27179664 -1.2659209 9013641
0.50705361 -0.27179906 -1.2659321 9013641
0.50248998 -0.27180144 -1.2659432 9013641
0.49792629 -0.27180386 -1.2659543 9013641
0.49336255 -0.27180627 -1.2659656 9013641
0.4876577 -0.27180928 -1.2659796 9013641
0.48195276 -0.27181226 -1.2659936 9013641
0.47738868 -0.2718147 -1.2660047 9013641
0.47282457 -0.27181709 -1.266016 9013641
0.46826035 -0.2718195 -1.2660272 9013641
0.46255496 -0.27182248 -1.2660412 9013641
0.45737764 -0.27229452 -1.2664648 8224125
0.54014915 -0.26836169 -1.2658786 8550769
0.53673071 -0.26722345 -1.2658962 8881539
0.53216755 -0.2672258 -1.2659073 9013641
0.52760422 -0.26722819 -1.2659186 9013641
0.52304089 -0.26723054 -1.2659298 9013641
0.51733649 -0.26723346 -1.2659438 9013641
0.51163208 -0.26723647 -1.2659578 9013641
0.5070684 -0.2672388 -1.2659689 9013641
0.50250465 -0.26724115 -1.26598 9013641
0.49794084 -0.26724353 -1.2659913 9013641
0.49337694 -0.26724589 -1.2660024 9013641
0.48767197 -0.26724887 -1.2660165 9013641
0.48196682 -0.26725182 -1.2660306 9013641
0.47740263 -0.26725417 -1.2660416 9013641
0.47283834 -0.26725653 -1.2660528 9013641
0.46827403 -0.26725888 -1.266064 9013641
0.46266484 -0.26731753 -1.2663431 8684676
0.45896608 -0.26897022 -1.268749 6710886
0.53560162 -0.26380384 -1.2659266 8551025
0.53218299 -0.26266551 -1.2659442 8881539
0.5276196 -0.26266783 -1.2659554 9013641
0.52305609 -0.26267016 -1.2659667 9013641
0.51735157 -0.26267305 -1.2659807 9013641
0.51164699 -0.26267594 -1.2659947 9013641
0.50708318 -0.26267827 -1.2660058 9013641
0.50251925 -0.26268059 -1.2660171 9013641
0.49795532 -0.26268291 -1.2660282 9013641
0.49339134 -0.26268527 -1.2660395 9013641
0.48768613 -0.26268816 -1.2660533 9013641
0.48198089 -0.26269108 -1.2660674 9013641
0.47741655 -0.26269338 -1.2660786 9013641
0.47285211 -0.26269567 -1.2660898 9013641
0.46768653 -0.26251692 -1.2663304 8618883
0.4639262 -0.26395839 -1.2666681 8158332
0.53105378 -0.25924569 -1.2659748 8088666
0.52725345 -0.25848749 -1.2659903 9013641
0.52307141 -0.25810951 -1.2660036 9013641
0.51736671 -0.25811234 -1.2660176 9013641
0.51166189 -0.25811517 -1.2660315 9013641
0.50709796 -0.2581175 -1.2660428 9013641
0.50253391 -0.25811976 -1.2660539 9013641
0.49796987 -0.25812203 -1.2660651 9013641
0.4934057 -0.25812432 -1.2660763 9013641
0.48770037 -0.25812718 -1.2660904 9013641
0.48199493 -0.25813004 -1.2661043 9013641
0.47743046 -0.25813231 -1.2661155 9013641
0.47239012 -0.25802088 -1.2666918 8421504
0.46859041 -0.25943953 -1.2669215 7829367
0.52308279 -0.25468886 -1.2660313 8551281
0.51727998 -0.25317091 -1.2666062 8749179
0.51168048 -0.25241387 -1.2660776 8816262
0.50711644 -0.2524161 -1.2660888 9013641
0.50255221 -0.25241834 -1.2661 9013641
0.49798802 -0.25242057 -1.2661113 9013641
0.49256876 -0.25213814 -1.266127 9013641
0.48707849 -0.25275865 -1.2661705 8684676
0.48242557 -0.25298086 -1.2666342 8553090
0.47789434 -0.25380921 -1.2673473 7829367
0.47447911 -0.25496113 -1.2673848 7303023
0.50331259 -0.2482245 -1.2680147 7566195
0.49748984 -0.24817353 -1.2677544 7434609
0.49355519 -0.24849536 -1.2693983 7303023
0.45767662 -0.32691196 -1.2715262 7631988
0.45413107 -0.32076606 -1.2744523 7500402
0.45279557 -0.31753016 -1.2707045 7434609
0.45101023 -0.31215069 -1.2721353 7237230
0.44943625 -0.30345595 -1.2741802 7039851
0.44928014 -0.29760483 -1.2737375 6908265
0.44949993 -0.29315221 -1.2743607 6776679
0.45069236 -0.28669935 -1.2712388 6710886
0.45205665 -0.28225124 -1.2718551 6710886
0.45372984 -0.27798042 -1.2733264 6710886
0.45644343 -0.27279556 -1.2723558 6710886
0.46013564 -0.26736069 -1.2719821 6710886
0.45831695 -0.26993611 -1.2733052 6710886
0.46689022 -0.26040322 -1.2716273 6710886
0.4633331 -0.26377904 -1.2713103 6710886
0.47286665 -0.25594571 -1.272279 6710886
0.46951392 -0.25829011 -1.2725201 6710886
0.48209515 -0.25137889 -1.2724012 6710886
0.47663808 -0.2538242 -1.2731516 6710886
0.51148528 -0.24942097 -1.2741266 6710886
0.50780869 -0.24874607 -1.270679 7303023
0.49100578 -0.24894492 -1.2716949 6710886
0.48848704 -0.24941579 -1.2741002 6710886
