# .PCD v0.7 - Point Cloud Data file format
VERSION 0.7
FIELDS x y z rgb
SIZE 4 4 4 4
TYPE F F F U
COUNT 1 1 1 1
WIDTH 1138
HEIGHT 1
VIEWPOINT 0 0 0 1 0 0 0
POINTS 1138
DATA ascii
-0.24032991 0.096784398 -1.2054653 592135
-0.23868091 0.10244775 -1.2081275 723979
-0.24025001 0.10544905 -1.2050645 1118738
-0.24337269 0.11022705 -1.2097794 987148
-0.24735826 0.1122374 -1.2079244 1578773
-0.31977704 0.22373472 -1.2098148 6234402
-0.32296318 0.22367382 -1.2094855 5842211
-0.32720888 0.2235927 -1.2090468 5842212
-0.33207306 0.22301774 -1.2088888 6039846
-0.33802408 0.22353181 -1.2087176 6759465
-0.34152254 0.22368081 -1.2095233 6825514
-0.31251478 0.22738256 -1.2098678 6104869
-0.31750277 0.22694354 -1.2094673 6104356
-0.32283682 0.22685815 -1.2090122 5841697
-0.32729489 0.22742717 -1.2085593 5841441
-0.33239588 0.22777271 -1.2080789 5776418
-0.33782336 0.22775798 -1.2080005 5842214
-0.34229276 0.22783108 -1.2083901 6237743
-0.34587476 0.22803722 -1.2094804 6831935
-0.30378139 0.23392971 -1.2098602 2760477
-0.30794024 0.23286454 -1.2096193 3285535
-0.3120096 0.2323705 -1.2093202 3482399
-0.31734425 0.23228267 -1.2088631 3416608
-0.3226752 0.232195 -1.2084068 3351072
-0.32671136 0.23255543 -1.208014 3154720
-0.33223781 0.23311104 -1.2075042 2629661
-0.33769062 0.23311527 -1.207526 2760990
-0.3421526 0.2331866 -1.207895 3550250
-0.34665555 0.23277597 -1.2091573 4141616
-0.29687268 0.23902613 -1.2098753 1579800
-0.30224565 0.23786841 -1.2095389 1514265
-0.30758524 0.23777851 -1.2090818 1580058
-0.31185386 0.23770663 -1.2087164 1711131
-0.31718585 0.23761685 -1.2082598 1711643
-0.32251412 0.23752716 -1.2078036 1974558
-0.32740599 0.23765793 -1.2073611 2040352
-0.33255035 0.23716247 -1.2070568 1909021
-0.33760965 0.23741561 -1.2072362 1909022
-0.3421616 0.23755148 -1.2079268 2567209
-0.3468461 0.23777452 -1.209061 3290676
-0.29683116 0.2422666 -1.2097063 1513751
-0.30215347 0.24215919 -1.20917 1382422
-0.3074789 0.24205777 -1.2086638 1514007
-0.3127999 0.24195671 -1.2081593 1514007
-0.31812492 0.24186197 -1.2076864 1579800
-0.32258451 0.24242821 -1.2072517 2301981
-0.32767725 0.24276403 -1.2067556 2629918
-0.33307597 0.24273156 -1.2065933 2629918
-0.33760959 0.24177183 -1.2072358 2105630
-0.34217641 0.24192071 -1.2079792 2632488
-0.34681824 0.24211803 -1.2089646 3224368
-0.29684719 0.24773645 -1.2097716 1316629
-0.30216488 0.24762262 -1.2092156 1316629
-0.30747798 0.24750888 -1.2086602 1316628
-0.31278586 0.24739522 -1.2081054 1251092
-0.31808922 0.24728169 -1.2075509 1775381
-0.32211781 0.2476321 -1.2071351 3742489
-0.32763699 0.24817698 -1.2066072 4594458
-0.33312252 0.24820884 -1.2067618 4725530
-0.33764192 0.24724095 -1.2073514 4529436
-0.34219626 0.24738376 -1.2080491 4792608
-0.3467854 0.24754776 -1.2088505 4727330
-0.29686326 0.25320691 -1.2098371 1710102
-0.30218115 0.2530905 -1.209281 1775381
-0.30749455 0.25297424 -1.2087255 2168597
-0.3128027 0.25285813 -1.2081705 2627862
-0.3181079 0.25274324 -1.2076218 3741719
-0.3223573 0.25265843 -1.2072164 4724504
-0.32769492 0.25257555 -1.2068204 4921367
-0.33322692 0.25264245 -1.20714 5052439
-0.3377772 0.25278801 -1.2078352 5380121
-0.34229961 0.25290918 -1.2084142 5708828
-0.34682697 0.25303093 -1.2089958 5315871
-0.29722974 0.25721097 -1.2098478 3348247
-0.30219421 0.25746527 -1.2093332 4069142
-0.30750784 0.25734699 -1.2087777 4593688
-0.31282088 0.25723261 -1.2082404 4593430
-0.31814182 0.2571283 -1.2077504 4855318
-0.32240897 0.25705582 -1.2074099 4921110
-0.32776389 0.25698435 -1.2070743 4855830
-0.33331552 0.2570667 -1.2074609 4921110
-0.3379043 0.25724319 -1.2082897 5313814
-0.34243473 0.25737125 -1.2088913 5510937
-0.34583062 0.25746384 -1.209326 5511194
-0.2979531 0.26193672 -1.2098303 4921110
-0.30220768 0.26184076 -1.2093871 4920596
-0.30752945 0.26172718 -1.2088627 4855316
-0.31259823 0.26245192 -1.208433 4855316
-0.31775224 0.26295149 -1.2080449 4986389
-0.32248941 0.26256749 -1.2077111 4920854
-0.32757959 0.26222727 -1.2073985 4921109
-0.33294162 0.26289752 -1.2077974 4986902
-0.33779246 0.26233965 -1.2086694 5379864
-0.34256995 0.26183683 -1.2093685 5445915
-0.34596723 0.26193106 -1.2098038 4921113
-0.29797629 0.2674146 -1.2099245 4986389
-0.30224562 0.26732934 -1.2095387 4920598
-0.30759412 0.2672362 -1.2091168 5052952
-0.31190073 0.26827848 -1.2088983 4987930
-0.31721354 0.26815999 -1.2083651 5183512
-0.32257462 0.26808566 -1.2080302 5117976
-0.32686779 0.2680316 -1.2077864 5118488
-0.3323876 0.26808923 -1.2080462 5249048
-0.33836144 0.26767841 -1.2091441 5708059
-0.34213695 0.26683405 -1.2097666 5578271
-0.30671459 0.27178612 -1.2099497 6177347
-0.31318495 0.27171785 -1.2096457 5385516
-0.31774753 0.27238637 -1.2087382 5317155
-0.32264429 0.27250364 -1.2082912 5647405
-0.32693839 0.27244869 -1.2080474 5382691
-0.3324753 0.27252027 -1.2083648 5314841
-0.33823454 0.2727696 -1.2094703 5642523
-0.31840551 0.27696916 -1.2087514 6376012
-0.32271355 0.27692315 -1.2085505 6178888
-0.32700905 0.27686766 -1.2083085 6375498
-0.33256379 0.27695429 -1.2086865 5446942
-0.33793268 0.27682081 -1.2096919 5576985
-0.31325006 0.28487191 -1.2098973 5515560
-0.3174223 0.2825169 -1.2091608 6243397
-0.32279256 0.28244355 -1.2088463 6310218
-0.32709721 0.28239402 -1.2086341 5979197
-0.33267125 0.28249753 -1.209077 5445657
-0.33725175 0.28268027 -1.2098595 5773082
-0.31752026 0.28696868 -1.209534 5052954
-0.32292804 0.28801712 -1.2093538 5119004
-0.32719392 0.28793073 -1.2089916 5118233
-0.33161587 0.28798199 -1.2092072 5444887
-0.33503294 0.28810644 -1.2097297 5575188
-0.32223016 0.073433384 -1.2149491 1837322
-0.32551026 0.073431581 -1.2149193 5053208
-0.25723848 0.079908334 -1.2134129 3620154
-0.26260045 0.079874218 -1.2128948 4278084
-0.26607618 0.07993231 -1.2137769 4540742
-0.31258225 0.078076884 -1.2147251 4133909
-0.31770059 0.077781565 -1.2143931 3083791
-0.32201451 0.077764988 -1.2141362 5183768
-0.32743555 0.077751644 -1.2139306 4724503
-0.3327232 0.078196958 -1.2140443 3152923
-0.33704352 0.079239674 -1.2143525 2827040
-0.34078476 0.079991251 -1.214672 1971989
-0.24739261 0.084288709 -1.2134392 1974815
-0.25271213 0.083143108 -1.2127017 2632746
-0.25808465 0.083111882 -1.2122425 3094324
-0.26238665 0.08308892 -1.2119081 3357238
-0.26741269 0.083306596 -1.2118946 3423031
-0.27235845 0.083493628 -1.2125009 3159602
-0.30246192 0.084382482 -1.2147893 5051926
-0.30752262 0.082906663 -1.2145789 3674643
-0.31260663 0.083025709 -1.2141818 3609105
-0.31753489 0.083215855 -1.2137599 5773595
-0.32182741 0.083193287 -1.2134309 3937555
-0.3272205 0.083173037 -1.2131338 2363663
-0.33265561 0.083163902 -1.2129991 2497049
-0.3371281 0.083187215 -1.2133422 3353898
-0.34169218 0.083232425 -1.2140021 4273201
-0.34681034 0.083826065 -1.214667 4074794
-0.24343845 0.08795879 -1.2137367 1514263
-0.24709176 0.087465689 -1.2119632 1383191
-0.25190216 0.087171331 -1.2109102 1975073
-0.25775596 0.08737433 -1.210698 2501930
-0.26181832 0.08702936 -1.2109638 2764588
-0.26810363 0.087182626 -1.2110651 2436136
-0.2730999 0.087391697 -1.2109348 2107171
-0.27752554 0.087409154 -1.2111789 2763561
-0.28196526 0.08852385 -1.2114755 3808798
-0.28703856 0.0887409 -1.2144459 4791579
-0.29310116 0.088203996 -1.2145981 4068369
-0.29800624 0.08764869 -1.2144952 4657938
-0.30230126 0.087623343 -1.214144 3149582
-0.30768034 0.087595701 -1.2137601 3542801
-0.313072 0.0875725 -1.2134376 5446169
-0.31741732 0.08756341 -1.2133102 3543826
-0.32178339 0.087560125 -1.2132646 2429456
-0.32724956 0.087558441 -1.2132411 2037524
-0.33271658 0.087557018 -1.2132214 2367775
-0.33709008 0.087555893 -1.2132057 4209465
-0.34262523 0.087571748 -1.2134277 4605251
-0.34830675 0.087624088 -1.214154 4539198
-0.35247931 0.088028371 -1.2146935 4801858
-0.2397359 0.09304814 -1.2134675 2500903
-0.24239197 0.091489233 -1.2121538 1185299
-0.24675274 0.09062162 -1.2103002 1315343
-0.27401569 0.090610735 -1.2101548 1251092
-0.27729779 0.090613022 -1.2101853 1514265
-0.28205171 0.092076004 -1.2102846 2430999
-0.2870042 0.092024289 -1.2115228 3938325
-0.29266363 0.091716968 -1.2132394 4921624
-0.29774165 0.091949195 -1.2134163 4330515
-0.30215818 0.091961011 -1.2135687 3674383
-0.30763474 0.09196201 -1.2135797 4461588
-0.31310079 0.091959693 -1.2135491 5052441
-0.31747407 0.091958024 -1.213527 3280912
-0.32184857 0.09195675 -1.2135103 2232849
-0.32731688 0.091955267 -1.2134906 2302239
-0.33278501 0.091953777 -1.2134709 2631974
-0.33715937 0.091952577 -1.2134552 3025961
-0.34262717 0.091951095 -1.2134355 3747629
-0.3481245 0.091957323 -1.213519 3748655
-0.35264826 0.091994941 -1.2140174 3419178
-0.35682118 0.092400827 -1.2145529 3747629
-0.36059648 0.0931632 -1.214968 4141101
-0.23782951 0.09677162 -1.2121223 2564892
-0.28813288 0.096530177 -1.2113672 2429454
-0.29312882 0.097345211 -1.2124468 3479316
-0.29767147 0.09740036 -1.2131299 3413268
-0.30193323 0.096995756 -1.2135454 3215888
-0.3077246 0.096838959 -1.2139337 3806227
-0.31280819 0.097802185 -1.2142354 4133649
-0.31763572 0.097481869 -1.2141449 4592659
-0.32203183 0.097486436 -1.2142011 3346190
-0.32752919 0.097492665 -1.2142775 2757136
-0.33293653 0.09637662 -1.2140234 2103061
-0.33734456 0.096384428 -1.2141216 1972246
-0.34239578 0.096169025 -1.214168 1973531
-0.3477264 0.096627459 -1.2144232 2171681
-0.35278869 0.096414536 -1.2145011 2499875
-0.35721594 0.095330566 -1.2146533 1907997
-0.23730691 0.10279673 -1.2122433 3353890
-0.23880583 0.10682514 -1.2124538 2170908
-0.24131368 0.10809975 -1.2103999 1053200
-0.23978661 0.11277652 -1.2137241 2566693
-0.24262038 0.11310639 -1.2125657 2041379
-0.24666157 0.1140402 -1.2116389 1844256
-0.25023323 0.11473572 -1.2112916 2367005
-0.24326751 0.1178042 -1.212883 3225140
-0.24714039 0.11810261 -1.2122015 3028018
-0.25201231 0.11824697 -1.2114402 3028018
-0.25675142 0.1190889 -1.2111115 2959655
-0.24415363 0.12152933 -1.2136613 5785138
-0.24761823 0.12216824 -1.2127559 4143665
-0.25253034 0.12243918 -1.2118289 3423032
-0.25788546 0.12238638 -1.2113067 3423288
-0.26183674 0.12272459 -1.2110504 3225653
-0.26543349 0.12343198 -1.2108452 2566439
-0.2537325 0.12577266 -1.2123494 4668457
-0.257943 0.12569255 -1.2115771 4079158
-0.26226971 0.12567082 -1.2113678 3554103
-0.26672578 0.1257107 -1.2117522 3356468
-0.27024704 0.12582345 -1.212839 2894889
-0.31317654 0.21900377 -1.2138431 5126449
-0.31743157 0.21891749 -1.2133651 5585973
-0.3222748 0.21900633 -1.2126448 5520692
-0.32765132 0.21865232 -1.2131087 5589568
-0.33274016 0.21890686 -1.2133071 5851715
-0.33674553 0.21926697 -1.2132801 5587517
-0.34034404 0.21996504 -1.213101 5453876
-0.29294017 0.22370358 -1.2143867 6366245
-0.29788637 0.22231877 -1.2140068 5776163
-0.30210769 0.22220147 -1.2133669 5251103
-0.3073836 0.22205912 -1.2125905 5251101
-0.31253037 0.22292334 -1.2113386 5709596
-0.3167491 0.22281609 -1.2107563 5775391
-0.32219639 0.22171493 -1.2107048 5450791
-0.32750702 0.22161305 -1.2101486 5123625
-0.33293071 0.22158988 -1.210022 5252898
-0.33741522 0.22166729 -1.2104447 4593686
-0.34325305 0.22191054 -1.2117836 5973798
-0.3477869 0.22370662 -1.2136126 5842470
-0.28376162 0.22898129 -1.2144876 6235172
-0.28695974 0.22781508 -1.2141134 6038311
-0.29219517 0.22762759 -1.2131138 5973027
-0.29745412 0.22746462 -1.2122452 5907491
-0.30270502 0.2273019 -1.2113781 6038821
-0.30795464 0.22714356 -1.2105342 6039332
-0.31118152 0.22601596 -1.210342 6235939
-0.34789595 0.22695132 -1.2114506 6238513
-0.35175595 0.22902481 -1.2147185 4662307
-0.27773741 0.23281747 -1.2144963 5514787
-0.28243685 0.23207961 -1.213504 5711141
-0.28785083 0.23263106 -1.2121019 4137505
-0.29284343 0.23274426 -1.2112674 3875360
-0.29707956 0.23263897 -1.2107186 3941154
-0.30170882 0.23183155 -1.2103029 4203554
-0.30673224 0.23032199 -1.2100194 4793635
-0.34824315 0.23034257 -1.2101275 5320494
-0.35096058 0.23287939 -1.2119718 3286564
-0.26411057 0.23890482 -1.2148088 2171168
-0.26725066 0.23877309 -1.2141391 2039324
-0.27259266 0.23756003 -1.2135416 2498590
-0.27783379 0.23736112 -1.2125254 2236189
-0.28201187 0.23719542 -1.2116777 2367518
-0.28699169 0.23767702 -1.2109479 2039580
-0.29262468 0.23803039 -1.2103627 1711644
-0.29693204 0.23689061 -1.2101173 1777178
-0.35079378 0.2382337 -1.211396 2566696
-0.26333219 0.24360973 -1.2145891 1843484
-0.26717681 0.24308708 -1.2138036 1909021
-0.27240637 0.24286866 -1.2127128 1909022
-0.27766612 0.24268457 -1.2117933 1908508
-0.28191656 0.24257934 -1.2112678 2171166
-0.28724709 0.24246724 -1.210708 1908765
-0.2925736 0.24235573 -1.2101513 1579801
-0.35180327 0.24316317 -1.2123598 2499362
-0.25976291 0.24880235 -1.2149768 2760478
-0.26292458 0.24758734 -1.2143936 2368030
-0.26711702 0.24741167 -1.213532 2498847
-0.27237508 0.24721615 -1.2125727 2629919
-0.27768305 0.24707235 -1.2118672 2826013
-0.28193113 0.24696293 -1.2113307 3350300
-0.28725952 0.24684672 -1.2107605 2891033
-0.29280111 0.24738523 -1.2101892 1447444
-0.35225832 0.24723624 -1.2126713 3808283
-0.25972199 0.2520507 -1.2147853 4528919
-0.26286939 0.2519165 -1.2141386 4659993
-0.26707238 0.25174856 -1.2133291 4593944
-0.27239692 0.25270578 -1.2126696 4790296
-0.27770218 0.252556 -1.2119508 4921113
-0.2819514 0.25244489 -1.2114178 4790039
-0.28727508 0.2523216 -1.210826 3937813
-0.29239038 0.25264794 -1.2102966 1839890
-0.35164928 0.25211501 -1.2124591 4724505
-0.25880983 0.25793323 -1.2146195 5117719
-0.2628305 0.25735489 -1.2139587 5051927
-0.26709303 0.25724128 -1.2134225 5052439
-0.27242076 0.25819823 -1.2127761 5051926
-0.27772167 0.25804064 -1.2120357 4986390
-0.2819728 0.25792861 -1.2115097 5051414
-0.28729126 0.25779763 -1.2108945 4790038
-0.29261789 0.25767842 -1.2103345 3872021
-0.29581511 0.25870168 -1.2100136 4200215
-0.34851128 0.25783324 -1.2110592 4723734
-0.35160184 0.25740314 -1.2141863 4723991
-0.25794193 0.26320177 -1.214661 5248279
-0.26285428 0.26285431 -1.2140685 5182998
-0.26712292 0.26274389 -1.2135586 5117204
-0.27243617 0.26258931 -1.2128447 5248278
-0.27773723 0.26242888 -1.2121036 5051668
-0.28198993 0.26231623 -1.2115833 5182484
-0.28730533 0.26217994 -1.2109538 5051924
-0.29263055 0.26205719 -1.2103869 5051926
-0.29582471 0.26198488 -1.210053 4921111
-0.34922847 0.26274291 -1.2135515 4526865
-0.25860527 0.26737159 -1.2146881 5182484
-0.26287788 0.26725918 -1.2141774 5116949
-0.26714417 0.2671442 -1.213655 5116434
-0.27245018 0.26697955 -1.212907 5181970
-0.27775314 0.26681799 -1.2121731 5051154
-0.28222224 0.26735693 -1.211642 4920082
-0.28732461 0.26766002 -1.2110351 4985875
-0.29264668 0.26753148 -1.2104535 4920596
-0.29584375 0.2674602 -1.2101308 4986389
-0.34390369 0.26857242 -1.2102233 5250332
-0.34650365 0.26670989 -1.2116795 4725016
-0.25862849 0.27177909 -1.214797 5181973
-0.26290712 0.27276614 -1.2143124 5247764
-0.26716408 0.2726388 -1.2137455 5116692
-0.27246767 0.27246797 -1.2129849 5116436
-0.2777743 0.27230632 -1.2122653 4985362
-0.28183478 0.2726517 -1.2118559 4920082
-0.28740117 0.27319536 -1.2113575 4985877
-0.29273778 0.27307633 -1.2108301 5051667
-0.29708332 0.27305472 -1.2107337 4920340
-0.30247506 0.27299222 -1.2104566 5251618
-0.30841708 0.27346107 -1.2109199 5388859
-0.31208107 0.27348092 -1.211008 5256758
-0.31546122 0.27398178 -1.2100055 4857115
-0.34285539 0.27297387 -1.2103759 5249820
-0.34710687 0.27155375 -1.213789 4723731
-0.2597295 0.27726397 -1.2148205 5050898
-0.26294678 0.27828535 -1.2144954 4919569
-0.26726204 0.27821571 -1.2141902 4789264
-0.2722286 0.27792352 -1.2138702 4723215
-0.2774294 0.27830631 -1.2136294 4657938
-0.28230599 0.2779294 -1.2129409 4789009
-0.28765127 0.27780831 -1.2124127 4723475
-0.29281718 0.27752069 -1.2111583 4985873
-0.29721457 0.27754587 -1.2112683 5051155
-0.30164504 0.2776008 -1.2115074 5251619
-0.30618152 0.2777164 -1.2136037 4930622
-0.31330219 0.27755913 -1.2129186 5128514
-0.31554097 0.27732643 -1.2103114 4596773
-0.33948302 0.27835414 -1.2100321 5774109
-0.34300196 0.2774598 -1.2108922 5249305
-0.34738332 0.27615345 -1.2147557 4723218
-0.27942058 0.28161198 -1.2146674 4854291
-0.2829811 0.28225097 -1.2142724 4723988
-0.28790537 0.28243288 -1.2134855 4527123
-0.29288158 0.28195316 -1.2114248 4854546
-0.29721516 0.28191727 -1.211271 4920339
-0.30189985 0.28221008 -1.2125293 5253675
-0.31291056 0.28227615 -1.2128156 5259328
-0.33953083 0.28276041 -1.2102026 5774107
-0.34315303 0.2819531 -1.2114245 5117719
-0.28822166 0.28602976 -1.2148148 4134935
-0.29258454 0.28645781 -1.2129142 4657682
-0.29766804 0.28717029 -1.2122253 4854546
-0.3024644 0.28716454 -1.2115083 5118490
-0.30763954 0.28766182 -1.2111371 5250076
-0.31211635 0.28765407 -1.2105805 5249817
-0.31772545 0.28933778 -1.2103158 5117464
-0.33845094 0.28822899 -1.2102443 5642521
-0.3431313 0.28714475 -1.2121198 5051670
-0.29447863 0.29009965 -1.2135025 4527125
-0.29780835 0.29123896 -1.2136863 5250838
-0.3022635 0.29240704 -1.2139924 4397590
-0.30763564 0.29230869 -1.2135839 3872792
-0.31300443 0.2922104 -1.2131758 4661280
-0.3172968 0.29213184 -1.2128496 4924710
-0.32265887 0.29203367 -1.2124422 4792352
-0.3282257 0.29321617 -1.212805 4989989
-0.33222997 0.29288802 -1.211448 4987419
-0.33709496 0.29252824 -1.210865 5314584
-0.34176862 0.29362151 -1.2129761 4791067
-0.34511119 0.29033151 -1.2144725 4985877
-0.33414513 0.29689607 -1.2144357 5450789
-0.33714783 0.29664642 -1.2134145 5453617
-0.28823006 0.058306098 -1.2194879 6578783
-0.29252386 0.057184681 -1.2190435 5526351
-0.29733247 0.057356376 -1.2180202 5789266
-0.30267793 0.056929767 -1.2183057 5652285
-0.3073003 0.057503324 -1.2180418 5514274
-0.31194687 0.058215372 -1.2175903 5053979
-0.31564865 0.058290493 -1.2191615 5249818
-0.27730292 0.064924106 -1.2198132 7237742
-0.28298026 0.062975772 -1.2193835 7237228
-0.28801319 0.062658913 -1.2185701 7171177
-0.29222122 0.062618442 -1.217782 6644318
-0.29756013 0.062586397 -1.2171524 5324605
-0.30294347 0.062564574 -1.2167233 5381920
-0.30727613 0.062552854 -1.2164943 5708317
-0.3124699 0.062823132 -1.2164202 6037534
-0.31796333 0.062274072 -1.2171954 5643545
-0.32279688 0.063063815 -1.2179148 5249560
-0.32721317 0.064122953 -1.21854 5512217
-0.33225614 0.064910889 -1.2195649 5905174
-0.27402028 0.069330402 -1.2198952 6842985
-0.27722365 0.068205759 -1.2194644 7171948
-0.28252879 0.068158694 -1.218623 7106156
-0.28781256 0.068108216 -1.2177213 7105384
-0.29209602 0.068082415 -1.21726 6773591
-0.29751399 0.06806574 -1.2169632 5712680
-0.30295074 0.068053931 -1.2167523 5644576
-0.30730292 0.06804543 -1.2166003 5183768
-0.3127397 0.068034403 -1.216403 5380889
-0.31817663 0.068023749 -1.2162126 5642776
-0.32260171 0.068031318 -1.2163497 5511447
-0.32706657 0.068047076 -1.2166314 5184283
-0.33228293 0.068300962 -1.2172452 5773852
-0.33744657 0.06814833 -1.2184457 5904668
-0.3421123 0.068568833 -1.2194051 5970713
-0.27325609 0.072990559 -1.2197595 7237743
-0.277156 0.072588414 -1.2191669 6711655
-0.2824311 0.072530903 -1.218202 6974827
-0.28769189 0.072471894 -1.2172105 6578011
-0.29199323 0.072449341 -1.2168314 5780274
-0.29738241 0.072425172 -1.2164255 5644063
-0.30276829 0.07240101 -1.2160197 5249047
-0.30709055 0.072385468 -1.2157596 2689804
-0.31251118 0.072370797 -1.2155142 4921109
-0.31794429 0.07235951 -1.2153245 5183510
-0.32235974 0.071269982 -1.2154377 3609105
-0.32782727 0.072362989 -1.2153835 5118231
-0.33281475 0.072179034 -1.2159787 5446685
-0.33805543 0.072440073 -1.2166796 4724502
-0.3426351 0.07248012 -1.2173523 4330258
-0.34724626 0.072525643 -1.2181183 5052440
-0.35145369 0.072928913 -1.2187375 5511707
-0.35638547 0.073696911 -1.2193092 5511963
-0.26963568 0.078139283 -1.2199737 5857118
-0.27283362 0.077009402 -1.2195108 6843500
-0.27704719 0.076957427 -1.2186882 6580070
-0.28229263 0.076889016 -1.217605 6645349
-0.28758076 0.076834448 -1.2167401 5649973
-0.29189336 0.076813936 -1.2164153 5449255
-0.29728076 0.076788314 -1.2160096 4921881
-0.30266482 0.076762706 -1.2156041 2362123
-0.3069694 0.076742247 -1.2152799 4199700
-0.31022289 0.075637355 -1.2151408 5642008
-0.33432779 0.075634785 -1.2150996 4663079
-0.33807066 0.076385446 -1.2154195 3874845
-0.34223062 0.07678213 -1.2159152 3216917
-0.34680972 0.076824553 -1.2165871 2822416
-0.35254097 0.076877646 -1.217428 3215889
-0.35827953 0.076930813 -1.2182698 4331543
-0.36289531 0.076977342 -1.2190075 5117977
-0.36736953 0.078093469 -1.2192583 5512221
-0.370841 0.078129679 -1.2198237 5446940
-0.26958656 0.08032576 -1.2197515 4935759
-0.27306941 0.081004314 -1.2189268 4607306
-0.27758542 0.082396306 -1.2178355 4934985
-0.28239322 0.082055658 -1.216855 5260868
-0.2874575 0.082287185 -1.2162186 5186853
-0.29221961 0.082573287 -1.2158167 4003864
-0.29742536 0.081963032 -1.21548 2953232
-0.30256143 0.08112143 -1.2151889 4527124
-0.30581516 0.080016121 -1.2150496 5445907
-0.34307095 0.080013327 -1.2150072 2038809
-0.34804165 0.080924377 -1.2155231 2891035
-0.35322654 0.082272589 -1.2160081 3350300
-0.35781834 0.082319513 -1.2167014 3021337
-0.36241758 0.082366981 -1.2174029 3020565
-0.36702311 0.082414724 -1.2181085 3216403
-0.37210721 0.08277721 -1.2188215 3346704
-0.37691683 0.082952283 -1.2195438 4658455
-0.2829271 0.086632669 -1.2156092 4335912
-0.28729352 0.086626649 -1.2155247 4267291
-0.29161111 0.086606294 -1.215239 3412754
-0.35409009 0.086604044 -1.2152076 4732726
-0.35746557 0.08772134 -1.215502 4799545
-0.36205876 0.087771542 -1.2161977 4140844
-0.36665958 0.08782237 -1.216902 3941924
-0.37241828 0.087885983 -1.2177835 4137248
-0.37818485 0.087949686 -1.2186661 3216400
-0.38242391 0.088364303 -1.2193297 5710368
-0.3584246 0.090976246 -1.2150364 4670271
-0.36220214 0.091738246 -1.2154518 4670272
-0.36753276 0.092157155 -1.216158 4210234
-0.37327835 0.092221439 -1.2170067 4535604
-0.37788498 0.092273958 -1.2176999 3150867
-0.38250065 0.092327446 -1.2184058 5448740
-0.38676503 0.092750072 -1.2191443 4466985
-0.30363849 0.099751234 -1.2151119 2494734
-0.30583638 0.099753045 -1.2151339 3084815
-0.33321583 0.099745482 -1.2150419 2690060
-0.33762792 0.099753663 -1.2151414 2297357
-0.34204072 0.099761844 -1.2152411 2429456
-0.34755778 0.099772058 -1.2153655 2496277
-0.35307592 0.099782288 -1.2154901 3022622
-0.35744247 0.098680608 -1.2154236 2563098
-0.36189935 0.097603709 -1.2156624 2234904
-0.36757103 0.097653717 -1.2162851 2760221
-0.37324944 0.097704075 -1.2169124 3810340
-0.37780914 0.097747602 -1.2174555 2953489
-0.3823112 0.096676424 -1.2178025 5120290
-0.38689575 0.096723869 -1.2184013 3482916
-0.39068863 0.096846715 -1.219949 2764331
-0.29290345 0.10312025 -1.2160528 1118222
-0.29758111 0.10322077 -1.2172364 1904655
-0.30306703 0.10321903 -1.2172196 2757137
-0.3073867 0.10319465 -1.2169321 3150609
-0.31232154 0.10293728 -1.2164851 3478288
-0.31758919 0.10337617 -1.2164853 3674897
-0.32257885 0.10313793 -1.2162638 4002321
-0.32694632 0.10313119 -1.2161844 4264209
-0.33242786 0.10312983 -1.2161691 4329745
-0.33791748 0.10313095 -1.2161837 4133392
-0.34232834 0.10313765 -1.2162628 4002064
-0.34738865 0.10292213 -1.2163094 3346447
-0.35272974 0.1033828 -1.2165655 3215118
-0.35779318 0.10316762 -1.2166164 3085331
-0.3622807 0.10319527 -1.2169434 3346704
-0.36682236 0.1032376 -1.2174424 3411727
-0.37250492 0.10329057 -1.218067 2886924
-0.37818903 0.10334251 -1.2186798 4462357
-0.38265657 0.1022622 -1.2189027 4858145
-0.38720134 0.10230088 -1.219364 2827555
-0.29816875 0.10672457 -1.2196411 1641996
-0.30247304 0.10669053 -1.2192521 1641996
-0.30786026 0.10665157 -1.218807 2626579
-0.31266287 0.10739809 -1.2189542 2823186
-0.31729001 0.1075231 -1.2187086 3281939
-0.32255352 0.10795818 -1.2186568 3806483
-0.32754499 0.1077166 -1.2184112 4003092
-0.33191982 0.10770955 -1.2183316 4003348
-0.33738753 0.10770074 -1.2182318 4330516
-0.34285444 0.10769193 -1.2181321 4461845
-0.34722731 0.10768489 -1.2180525 4723988
-0.35224301 0.10745326 -1.2179188 4789268
-0.35757369 0.10790984 -1.2181128 4854549
-0.36262417 0.10768864 -1.2180973 5053468
-0.36713165 0.10772143 -1.2184689 5182998
-0.37167501 0.10776392 -1.2189498 5248534
-0.3773514 0.1078148 -1.2195252 5314586
-0.38295698 0.10674369 -1.2198596 4136735
-0.34887198 0.11115476 -1.2199613 4395795
-0.35215569 0.1111491 -1.2198992 4461331
-0.35762775 0.11113968 -1.2197958 4461588
-0.36309898 0.11113026 -1.2196925 4462359
-0.36752272 0.11113708 -1.2197673 4068114
-0.37190187 0.11113039 -1.2196939 4199955
-0.3048411 0.21459924 -1.2199244 4923423
-0.30801612 0.21451128 -1.2194244 5514017
-0.31225762 0.21440223 -1.2188046 5579040
-0.31760243 0.21429932 -1.2182196 5185821
-0.32262203 0.21310151 -1.2189163 5973796
-0.32766742 0.21331269 -1.2188666 6040104
-0.33211771 0.21334623 -1.2190577 6170403
-0.33751664 0.21438296 -1.218695 5646371
-0.28497258 0.21895567 -1.2196704 5903381
-0.28807417 0.21880451 -1.2188284 5707287
-0.29223973 0.21863055 -1.2178594 6101274
-0.29727635 0.21773843 -1.2177926 5912115
-0.30240697 0.21719667 -1.2172176 5523265
-0.30724794 0.21726733 -1.216383 6116174
-0.31217641 0.21671207 -1.2163442 5984844
-0.31817079 0.21613671 -1.2161907 7498856
-0.32243773 0.2160552 -1.2157321 7038306
-0.32685655 0.21607618 -1.2158501 6643029
-0.33246854 0.21615921 -1.2163173 6314320
-0.33839861 0.21694021 -1.2165984 6050634
-0.34282568 0.21756104 -1.2180285 6312010
-0.34613955 0.21867222 -1.2180915 5980478
-0.27397278 0.22335923 -1.2196838 6298137
-0.27749994 0.22251289 -1.2190669 6232604
-0.2826272 0.2223666 -1.2176962 6233374
-0.28745118 0.22271888 -1.2161926 6431008
-0.29225358 0.22097228 -1.2156327 6430499
-0.34685081 0.22062278 -1.2167284 5447712
-0.35038599 0.22297283 -1.2175738 4987675
-0.26294839 0.22994222 -1.2195842 6170145
-0.26798704 0.2283933 -1.2191496 6300450
-0.27255639 0.22749577 -1.2182721 6169120
-0.27746156 0.22751251 -1.2168924 6300195
-0.28192624 0.22663744 -1.2160256 6235426
-0.35226518 0.22716159 -1.216477 5843745
-0.24750672 0.23430663 -1.2193948 5776931
-0.25296798 0.23316997 -1.2192061 6039335
-0.25723451 0.23304957 -1.2185764 5908262
-0.26231185 0.23248529 -1.2180917 5973285
-0.26787907 0.23274688 -1.2169938 5842469
-0.27208269 0.2325865 -1.2161546 5710885
-0.27632767 0.2313697 -1.2155236 5776419
-0.24315076 0.23764938 -1.2196145 3416861
-0.24733816 0.23744498 -1.2185651 3416351
-0.25260195 0.23722616 -1.2174422 3285793
-0.25744492 0.23725323 -1.2164557 3023650
-0.26214001 0.23636466 -1.2158362 3482142
-0.26748824 0.23569661 -1.2152183 3744032
-0.35453635 0.2381869 -1.2167392 2303267
-0.35503057 0.23632059 -1.2184353 3616291
-0.24236315 0.24236339 -1.2193434 2041121
-0.24756207 0.24222486 -1.2181218 1975072
-0.25251329 0.2426322 -1.2170149 2040351
-0.25776491 0.24240892 -1.2158949 1974558
-0.26197845 0.24115151 -1.2150855 1843229
-0.35419363 0.24124601 -1.2155631 2105889
-0.2387858 0.24978964 -1.2197981 2827553
-0.24191713 0.24741514 -1.2189434 2303008
-0.24691424 0.24746367 -1.2178297 2105888
-0.25242469 0.24803472 -1.216588 2433310
-0.25726011 0.24761045 -1.2155821 2564898
-0.23869134 0.25299057 -1.2193155 4594457
-0.24245702 0.25300843 -1.2183423 4726042
-0.2475232 0.25235528 -1.2173123 4529691
-0.25236434 0.2523644 -1.2162971 4528921
-0.25657082 0.25218505 -1.2154329 4594457
-0.35408077 0.25322795 -1.2151756 5713435
-0.23863305 0.25732774 -1.2190179 5183512
-0.24282633 0.25711063 -1.2179898 5315099
-0.24809963 0.25688195 -1.2169064 5183513
-0.252298 0.25778267 -1.2159773 5248791
-0.2559849 0.25708115 -1.2152534 5051926
-0.3519699 0.25986552 -1.2154573 4658711
-0.23867129 0.26176843 -1.219213 5052437
-0.24277867 0.26255304 -1.2177514 5314842
-0.24803439 0.26230177 -1.2165864 5249047
-0.25223169 0.26319832 -1.2156577 5183511
-0.25539914 0.26197582 -1.2150738 5249306
-0.3523387 0.2623331 -1.216731 5120535
-0.23871905 0.26732132 -1.2194571 5183513
-0.24277405 0.26804116 -1.2177302 5445914
-0.24796914 0.26771894 -1.2162664 5379865
-0.25219616 0.26754725 -1.2154863 5314068
-0.25539857 0.26745588 -1.2150711 5051924
-0.34976825 0.2664378 -1.2154272 4461586
-0.35012907 0.26890782 -1.216681 4527378
-0.23876683 0.27287632 -1.2197013 5182485
-0.24280316 0.27246806 -1.2178763 5314071
-0.24793664 0.27207211 -1.2161068 5379095
-0.25221226 0.27195063 -1.2155638 5248278
-0.25542149 0.27186483 -1.2151802 5247508
-0.35049063 0.27248192 -1.2179375 4856594
-0.23879117 0.27730578 -1.2198255 5379349
-0.24311295 0.27732861 -1.217856 5313301
-0.24800795 0.27763748 -1.2164565 5182228
-0.25226757 0.27749458 -1.2158306 5247508
-0.25653014 0.27735963 -1.2152395 5116177
-0.31158286 0.27866906 -1.2161708 4735298
-0.34759098 0.27960777 -1.2154818 4526354
-0.35104588 0.27621469 -1.2198669 5185297
-0.23880313 0.28172153 -1.2198865 5052183
-0.24260847 0.28272355 -1.2182772 5379606
-0.24811496 0.2832464 -1.2169812 5314327
-0.25247455 0.28321099 -1.2168272 5117206
-0.25690615 0.28325611 -1.2170193 4789269
-0.26199952 0.28287289 -1.2177333 4395538
-0.2682929 0.28293443 -1.2172083 4264209
-0.27230734 0.28328875 -1.2171583 4461073
-0.27709165 0.28323537 -1.2159898 4526611
-0.28174561 0.28393808 -1.2152433 4526867
-0.31096354 0.28239241 -1.2180419 4866628
-0.34795666 0.28319538 -1.2167606 4460561
-0.24852349 0.28701138 -1.2189839 5253671
-0.25302404 0.28712702 -1.219475 5382948
-0.28476328 0.28696212 -1.2187747 3869966
-0.28774416 0.28774405 -1.2174306 4001809
-0.29047298 0.28828064 -1.2150638 4395281
-0.34869006 0.28709173 -1.2193252 4855826
-0.29192865 0.29083219 -1.2165668 4199185
-0.32554269 0.29485166 -1.2150403 5519415
-0.3453702 0.29274225 -1.215384 4723735
-0.31386995 0.29521331 -1.2165306 4860187
-0.31817389 0.29513368 -1.2162025 4993581
-0.32247218 0.29505104 -1.2158619 4993329
-0.33115509 0.29716253 -1.2155256 5846050
-0.3409729 0.29711777 -1.2153425 4926756
-0.27721611 0.054117981 -1.2242917 6579554
-0.28246063 0.054064743 -1.2230872 6447969
-0.28776637 0.054025162 -1.2221918 6250333
-0.29307616 0.053987719 -1.2213448 5987161
-0.29748449 0.05398789 -1.2213486 5723731
-0.30205116 0.054016389 -1.2219934 5656396
-0.30676603 0.054070145 -1.2232095 5059377
-0.31051481 0.054146692 -1.2249411 4859171
-0.26293653 0.058553107 -1.2246542 5921880
-0.26762649 0.057795074 -1.2242073 7039847
-0.27261859 0.057392899 -1.2234845 7171433
-0.27789569 0.057343066 -1.2224209 7105384
-0.28208673 0.057298414 -1.2214684 6973799
-0.28684756 0.056708664 -1.2206271 6579039
-0.30928895 0.056134269 -1.2201052 4792606
-0.31316546 0.056237318 -1.2223451 4857371
-0.31759161 0.05734162 -1.2224128 5053209
-0.32210058 0.058463342 -1.2227767 5118746
-0.32585695 0.058543768 -1.2244588 5381404
-0.24859132 0.062976442 -1.2247365 1909791
-0.25179163 0.062947914 -1.2241817 2238244
-0.25725043 0.061828036 -1.2238834 4343364
-0.26257694 0.061782442 -1.2229792 6382432
-0.26785612 0.062462453 -1.2219001 7171434
-0.27271637 0.062473893 -1.2210983 7171948
-0.27746996 0.061659776 -1.2205479 7303021
-0.28071851 0.060547099 -1.2203096 7368813
-0.32477614 0.060551461 -1.2203975 5446427
-0.32871482 0.061334938 -1.2213964 5577755
-0.33260879 0.062110532 -1.2222105 5643033
-0.33732572 0.063936435 -1.2219875 5708055
-0.34146681 0.062989004 -1.2249807 5576474
-0.24419592 0.066297442 -1.2248569 1843744
-0.24739793 0.067371644 -1.2242991 2107427
-0.25273928 0.067323461 -1.2234244 2633516
-0.25807914 0.067276865 -1.2225777 4080963
-0.26234695 0.06724 -1.221908 6514276
-0.26740405 0.067470446 -1.2210926 6908777
-0.27262527 0.06788113 -1.2202193 6842984
-0.34274867 0.066124514 -1.2216728 5970713
-0.34776175 0.067270853 -1.222509 5839386
-0.35260573 0.068755396 -1.2227324 5773848
-0.35776123 0.069564573 -1.2240156 5839129
-0.24780908 0.072538503 -1.2245116 2172965
-0.25269842 0.072830319 -1.2232276 3422777
-0.2580002 0.072769232 -1.2222039 4541000
-0.26226529 0.072728969 -1.2215276 6448740
-0.26758978 0.072678715 -1.2206836 7040365
-0.27186123 0.071542397 -1.2200834 6842728
-0.35333642 0.071547851 -1.2201763 5905692
-0.35796842 0.072327606 -1.2209587 5839642
-0.36281407 0.072782636 -1.2224408 5839383
-0.367697 0.07324452 -1.2240118 5773593
-0.248624 0.07624466 -1.2248974 1580314
-0.25282276 0.077282421 -1.2238302 2962482
-0.25801659 0.077184655 -1.2222819 4541514
-0.26221192 0.077121146 -1.2212791 5593432
-0.26710218 0.076849744 -1.2204678 6448742
-0.36785603 0.075994089 -1.2208719 5774107
-0.37301803 0.076807752 -1.2221497 5774106
-0.37694219 0.077594049 -1.222958 5446170
-0.38092682 0.078393608 -1.2239444 3479832
-0.25189295 0.080649987 -1.2246749 987922
-0.25501302 0.08058849 -1.2237411 1711132
-0.37872618 0.081470117 -1.2204111 5643290
-0.38267979 0.082631581 -1.2213167 5708829
-0.38763329 0.08274772 -1.2230419 3415065
-0.39263889 0.084267817 -1.2237407 2434337
-0.3841728 0.086961724 -1.2202264 5972516
-0.38767752 0.088108093 -1.2208627 4334626
-0.39251596 0.088205412 -1.2222111 2566694
-0.39653948 0.087260962 -1.2244223 2303009
-0.38852885 0.091353782 -1.2200786 3023907
-0.39224142 0.092551053 -1.2213545 2764073
-0.39378962 0.097068474 -1.2227433 2633002
-0.39238846 0.10250629 -1.2218124 2632745
-0.39671674 0.1027706 -1.2249696 2106660
-0.29714313 0.10835325 -1.2214552 2560270
-0.30177987 0.10903724 -1.220897 2822415
-0.30716404 0.10899373 -1.2204098 2166285
-0.31146854 0.10895892 -1.2200201 1708045
-0.38310686 0.10898723 -1.2203372 3349531
-0.38758028 0.10790603 -1.2205572 2500131
-0.3928265 0.10813764 -1.2231766 2040866
-0.29824162 0.11156458 -1.2244593 2822414
-0.3027195 0.11218703 -1.2232095 3020307
-0.30727908 0.11228015 -1.222621 3215887
-0.31253269 0.11270672 -1.2224625 1183501
-0.3174414 0.11242785 -1.2218292 2364691
-0.32272968 0.11235017 -1.2209873 3675667
-0.32819346 0.11233509 -1.2208233 4134678
-0.33264935 0.11235239 -1.2210091 4265750
-0.33705026 0.11235078 -1.220991 4331030
-0.34252855 0.11234125 -1.2208875 4330772
-0.3477172 0.11272403 -1.221058 4330772
-0.35261858 0.11349908 -1.2215028 4396053
-0.35700205 0.11349136 -1.2214198 4330517
-0.362546 0.11350212 -1.2215357 3085587
-0.36812478 0.11352349 -1.2217655 2102289
-0.37246734 0.11350334 -1.2215488 1774609
-0.37726715 0.11210144 -1.2206776 3282965
-0.38267821 0.11257847 -1.2210772 1775894
-0.38788605 0.11239895 -1.2215202 2040609
-0.39193755 0.11261366 -1.2238488 1580314
-0.31264234 0.11599813 -1.2246193 1380880
-0.318012 0.11704653 -1.2240256 3347732
-0.32217267 0.11695354 -1.2230532 3806740
-0.32714975 0.11669777 -1.2226855 4069141
-0.33260673 0.11719624 -1.2232833 4134934
-0.33778074 0.11700939 -1.2236369 3873046
-0.34227788 0.11703746 -1.2239293 3216915
-0.34733769 0.11681049 -1.2238634 3020309
-0.35270256 0.11727384 -1.2240901 2233619
-0.35729989 0.11664766 -1.223699 1971732
-0.36201665 0.1158894 -1.2234714 1447441
-0.36763218 0.11592004 -1.2237949 1316370
-0.37307841 0.11589712 -1.2235528 1316626
-0.37742651 0.11587654 -1.2233355 1316628
-0.38177299 0.11585595 -1.2231181 1316628
-0.38736698 0.11587874 -1.2233588 1579543
-0.32253143 0.12039705 -1.2244152 4069396
-0.32691991 0.12038598 -1.2243026 4004118
-0.33254334 0.12042257 -1.2246747 3741461
-0.3237004 0.19996502 -1.224658 5578529
-0.31927729 0.20438157 -1.2246426 5908003
-0.32240605 0.20315979 -1.2239394 5841954
-0.32689661 0.2032055 -1.2242149 6170662
-0.33143491 0.20438468 -1.2246614 6433835
-0.31312996 0.20820078 -1.2243652 6365730
-0.31797227 0.20756483 -1.2238728 6563622
-0.32208866 0.20737202 -1.2227347 6564396
-0.32720309 0.20761795 -1.2228837 6695466
-0.33277872 0.20735137 -1.2239151 6695465
-0.33754241 0.20797278 -1.2241081 6759974
-0.34144089 0.20884241 -1.2248877 6628392
-0.29908767 0.2141057 -1.2233999 5183512
-0.3021422 0.21392438 -1.2223638 5183768
-0.30771434 0.21231143 -1.2225975 5642006
-0.31244645 0.21145768 -1.222126 5970458
-0.31728554 0.21152286 -1.2212293 6035993
-0.32179642 0.21049014 -1.2216245 6233111
-0.32730365 0.21048808 -1.2216127 6363416
-0.33285338 0.21051314 -1.2217581 6429211
-0.3370454 0.21147855 -1.2209733 6428698
-0.34208876 0.21239766 -1.2224637 6627618
-0.34534174 0.21404478 -1.2230492 6041389
-0.27257082 0.21960212 -1.2232714 5707801
-0.27828717 0.21873172 -1.2225237 5772566
-0.28215578 0.21822886 -1.2217674 5640980
-0.28782603 0.21669593 -1.2224452 5509651
-0.29265073 0.21590376 -1.222333 5772052
-0.29667345 0.21506059 -1.2225471 5510678
-0.34804931 0.21808147 -1.2209361 4924964
-0.25786918 0.22363359 -1.2241988 5837586
-0.26263955 0.22291212 -1.2232713 6034197
-0.26740626 0.22287524 -1.2218593 6100506
-0.27205613 0.22194053 -1.2209604 5969430
-0.27624902 0.22121924 -1.2200179 6100502
-0.24846372 0.22858652 -1.2241077 6101787
-0.25266963 0.22729212 -1.2230881 6232601
-0.25799409 0.22712247 -1.2221748 6232859
-0.26222777 0.22696991 -1.2213531 6364704
-0.26609012 0.22645156 -1.2205378 6299168
-0.35381502 0.22595654 -1.2218291 5384993
-0.24269404 0.23386846 -1.2228603 6040878
-0.24751741 0.23164821 -1.2216232 6235174
-0.25227198 0.2302397 -1.2211622 6431523
-0.25761366 0.23009087 -1.2203727 6235173
-0.35634559 0.23498943 -1.2229483 3812385
-0.2379965 0.23799646 -1.2232865 4536118
-0.24116679 0.23786278 -1.2207103 3812394
-0.23402907 0.24396482 -1.2236981 3816763
-0.23740858 0.24225882 -1.2217772 3093811
-0.24104796 0.24104786 -1.2201087 2501418
-0.2339638 0.24720752 -1.223357 3093553
-0.23787656 0.24668702 -1.2207814 2369573
-0.23344721 0.25267893 -1.2231318 4070426
-0.23675792 0.25217435 -1.2206897 3873562
-0.23254992 0.25777701 -1.2233897 5118234
-0.23667039 0.25758526 -1.2202382 5117465
-0.23276204 0.26254857 -1.2228471 5183256
-0.23664877 0.26196462 -1.2201269 5249305
-0.23299628 0.26734057 -1.222422 5314072
-0.23669617 0.26752171 -1.2203712 5379867
-0.23244826 0.27270719 -1.2226442 5314327
-0.23674358 0.27308089 -1.2206156 5313559
-0.23275161 0.27798 -1.2227906 5183000
-0.23676984 0.27751619 -1.220751 5379094
-0.23395537 0.28140974 -1.223315 4789784
-0.23634008 0.28265461 -1.2223314 4922655
-0.3097786 0.28111571 -1.2220368 4405305
-0.31023234 0.28373551 -1.2238268 4075825
-0.2382853 0.28572288 -1.2228823 4796207
-0.2439778 0.28813657 -1.2237628 5583648
-0.2455948 0.28744492 -1.2208252 5845281
-0.25649714 0.2873207 -1.2202977 4658967
-0.26321664 0.285243 -1.2208284 4264977
-0.26642793 0.28514415 -1.2204052 4133137
-0.27715129 0.28819394 -1.2240065 3804686
-0.28197992 0.28748786 -1.2210078 3804686
-0.28736177 0.28956366 -1.2204716 3805199
-0.30995944 0.28569204 -1.2227502 4141618
-0.34929627 0.28979459 -1.221445 5120018
-0.28780523 0.29148206 -1.2223634 3936531
-0.28953877 0.049920458 -1.2297177 6119005
-0.29288077 0.049922824 -1.229776 6118745
-0.24734746 0.054349955 -1.2295395 1645849
-0.2527231 0.054313302 -1.2287103 2040607
-0.25718105 0.053209182 -1.228826 3488055
-0.26256278 0.053176541 -1.228074 5132878
-0.26797345 0.053150743 -1.2274836 6447711
-0.27229905 0.053130195 -1.2270169 6382175
-0.27690834 0.052058779 -1.2278222 6250846
-0.2822496 0.052022535 -1.2269673 6250590
-0.28758398 0.05198634 -1.2261138 6119517
-0.29186025 0.051959965 -1.2254918 6184796
-0.29744229 0.051969413 -1.2257146 6184283
-0.30309886 0.051991366 -1.2262323 6117462
-0.30789459 0.052054029 -1.2277102 5323320
-0.31229705 0.053155735 -1.2276087 4989729
-0.31674129 0.054266758 -1.2276573 5119260
-0.32048956 0.054339036 -1.2292925 5184794
-0.22966364 0.058802743 -1.2298753 1909535
-0.23292515 0.058785871 -1.2295225 1909791
-0.23766977 0.058030937 -1.2292022 1778462
-0.2427263 0.057633232 -1.2286059 1843740
-0.24810094 0.057594392 -1.227778 1712413
-0.25239524 0.057563357 -1.2271165 1975328
-0.25729209 0.057740927 -1.2261877 2896173
-0.26214203 0.056410387 -1.2261066 5001035
-0.26639447 0.056373905 -1.2253138 6908261
-0.31943351 0.056370597 -1.2252419 5250074
-0.3231791 0.056445554 -1.2268711 5315866
-0.32824418 0.057229061 -1.2278808 5315610
-0.33216923 0.058683097 -1.2273729 5380633
-0.33604139 0.058779493 -1.2293891 5380890
-0.22729236 0.062089726 -1.2290549 1777949
-0.23262759 0.062033664 -1.2279521 2041891
-0.23693089 0.062000114 -1.2272904 2041635
-0.24230342 0.061958451 -1.2264656 1909793
-0.24733865 0.06155774 -1.2258286 1909792
-0.2520414 0.060799479 -1.2253962 2041634
-0.33488861 0.060788337 -1.2251717 5446425
-0.33746743 0.060854759 -1.2265104 5511962
-0.34224883 0.061655741 -1.2277894 5445656
-0.34794223 0.063161358 -1.2283325 5380118
-0.22806644 0.066904731 -1.2292415 2107172
-0.23267609 0.067587547 -1.2282084 2041379
-0.23764353 0.06722711 -1.2266862 1843999
-0.24212235 0.068325311 -1.2255492 1778207
-0.35289028 0.066005059 -1.2262779 5511447
-0.35765597 0.066806056 -1.2274485 5445399
-0.36266387 0.06898997 -1.2269067 5511447
-0.3668929 0.069091998 -1.2287159 5183766
-0.37164733 0.069891863 -1.2297744 4987414
-0.23289721 0.073196515 -1.2293762 2041380
-0.23706529 0.073113836 -1.2279875 1778976
-0.24226466 0.073011644 -1.2262713 1778207
-0.24646772 0.074050806 -1.2251644 1778205
-0.36824766 0.071880154 -1.2258434 5774107
-0.37287197 0.073024623 -1.2265053 5576984
-0.37722418 0.072783791 -1.2286676 4790807
-0.38129872 0.074264459 -1.2286992 2693655
-0.23405316 0.076538682 -1.2296209 1646876
-0.23721752 0.077594765 -1.228776 1449241
-0.24241701 0.077485301 -1.2270427 1449241
-0.24728231 0.077759452 -1.2255507 1317142
-0.37917864 0.076277897 -1.2254313 3939098
-0.38318428 0.077078588 -1.2264581 2301210
-0.38721105 0.077884339 -1.227532 1842200
-0.3913258 0.078708559 -1.2288617 1580056
-0.2377125 0.08170221 -1.2294244 1185557
-0.24257439 0.081966229 -1.2278395 1053713
-0.24776505 0.081851192 -1.2261165 856077
-0.25092521 0.082904771 -1.2253429 1185043
-0.39272478 0.081494652 -1.2263075 1974044
-0.39693671 0.082047753 -1.2290747 1973787
-0.24312006 0.086829059 -1.2287298 921615
-0.2468521 0.085235886 -1.2270751 658443
-0.39986455 0.089720279 -1.227849 3483677
-0.24283636 0.092033833 -1.229161 1711386
-0.39687535 0.092862397 -1.2254593 2172452
-0.40005213 0.093086958 -1.2284249 2040352
-0.39790013 0.097723573 -1.2263432 2959906
-0.40001088 0.09640149 -1.2282983 3090462
-0.39675897 0.10278142 -1.2251 2041124
-0.39692256 0.10724645 -1.2256051 1645852
-0.29882365 0.11399582 -1.2268488 2035468
-0.30177137 0.11385509 -1.2253343 3019537
-0.39488187 0.11171725 -1.2261348 1514265
-0.39558539 0.11413245 -1.2283193 4008986
-0.29760936 0.11719552 -1.2294511 1578002
-0.30245131 0.11743612 -1.2280985 1708816
-0.30752444 0.11725836 -1.2262371 1446671
-0.31187439 0.11833536 -1.2259426 1578259
-0.31500426 0.11826471 -1.2252107 2757908
-0.35921198 0.11826359 -1.2251991 1382935
-0.36263853 0.11829969 -1.2255731 1382420
-0.36715594 0.11833036 -1.2258908 1382419
-0.37260243 0.11830402 -1.225618 1316883
-0.37806433 0.11828324 -1.2254026 1316628
-0.38264948 0.11833372 -1.2259256 1382164
-0.38729239 0.11840074 -1.2266198 1579543
-0.39336541 0.11634748 -1.2283074 2629910
-0.30424392 0.12162366 -1.229371 1579286
-0.30789438 0.12182897 -1.2277128 1578772
-0.31204849 0.12172118 -1.2266265 2627349
-0.31740057 0.12165219 -1.2259299 3872533
-0.32286298 0.12383816 -1.2256734 4594459
-0.32689849 0.12346254 -1.2256033 4594969
-0.33170015 0.12272899 -1.2256417 3676951
-0.33767828 0.12184761 -1.2256696 2104345
-0.34286532 0.12166226 -1.2260296 1580055
-0.34744167 0.12171569 -1.226567 1579800
-0.35182482 0.12059395 -1.2264178 1448213
-0.35754296 0.12065677 -1.2270565 1448470
-0.36326247 0.12071825 -1.2276818 1448727
-0.36776042 0.12074059 -1.2279091 1448728
-0.37224185 0.12075694 -1.2280753 1514263
-0.37688696 0.12082545 -1.2287719 1711642
-0.38153744 0.12089403 -1.2294695 1842971
-0.38502854 0.12094552 -1.2299931 1711642
-0.3073265 0.12719868 -1.2287657 2694170
-0.31225064 0.12733661 -1.227421 4200985
-0.31764159 0.12727845 -1.2268602 4725274
-0.32305878 0.12833855 -1.2264167 4988187
-0.32770371 0.12767391 -1.2264093 4792607
-0.33201057 0.12727079 -1.2267885 3155492
-0.33702132 0.12699595 -1.2271881 2500901
-0.34194168 0.12698165 -1.2282733 2237986
-0.34700084 0.12527502 -1.2289251 1908766
-0.30825961 0.13306196 -1.2291691 4202012
-0.31245303 0.13295887 -1.2282166 4791838
-0.31740355 0.13267627 -1.2276518 4988958
-0.32257387 0.13305923 -1.2270981 5185566
-0.3275646 0.13279645 -1.2267169 4531234
-0.33210021 0.13284005 -1.2271198 2895146
-0.33668697 0.13290274 -1.2276983 2830124
-0.34029782 0.13301557 -1.22874 2173220
-0.30939424 0.13750863 -1.2292697 4333598
-0.31261313 0.13746122 -1.228846 4858143
-0.31691676 0.13740459 -1.2283399 5185824
-0.32228836 0.13733269 -1.2276971 5382944
-0.32767296 0.13726848 -1.2271233 4597027
-0.3321718 0.13729763 -1.2273842 3092270
-0.33687586 0.1374099 -1.2283868 3027504
-0.34052616 0.13754165 -1.2295644 2304808
-0.30951917 0.14200163 -1.2297661 3482656
-0.3127352 0.14195074 -1.2293258 4792864
-0.31705439 0.14189856 -1.2288733 5186080
-0.32243976 0.14182939 -1.228274 5448481
-0.32780859 0.14175518 -1.2276312 4990502
-0.33228105 0.14177322 -1.2277876 3092012
-0.33710185 0.14193761 -1.2292107 2961967
-0.30956 0.14645848 -1.2299285 2499872
-0.31271756 0.1474873 -1.2292565 4072224
-0.31705064 0.14743954 -1.2288586 5251361
-0.32246551 0.14738114 -1.2283717 5579554
-0.32787642 0.14732276 -1.2278852 5515048
-0.33239418 0.1473611 -1.2282048 3222826
-0.33611509 0.14753574 -1.2296586 3093297
-0.31270504 0.15302591 -1.2292075 3089698
-0.31701356 0.15296456 -1.2287149 4923679
-0.32242787 0.15290396 -1.2282282 5644833
-0.32783809 0.1528434 -1.2277418 5710882
-0.33233589 0.15287426 -1.2279899 3615786
-0.33605129 0.15305293 -1.2294253 3290161
-0.31270826 0.1574631 -1.2292205 2565668
-0.31698391 0.15738359 -1.2286 4596255
-0.32239771 0.15732126 -1.2281133 5382946
-0.32780999 0.15726015 -1.2276365 5645346
-0.33228403 0.15728094 -1.2277988 3681064
-0.33595464 0.15744394 -1.2290717 3290161
-0.31273159 0.16191077 -1.2293123 2172449
-0.31695428 0.1618018 -1.2284851 4137759
-0.32236758 0.16173771 -1.2279986 5513248
-0.32778561 0.16278535 -1.2275451 5775906
-0.33224043 0.16169025 -1.2276382 4205096
-0.33711725 0.16190462 -1.2292662 3092783
-0.31276181 0.16747189 -1.2294312 2172194
-0.3169345 0.16733257 -1.2284088 3482656
-0.32232991 0.16725709 -1.2278552 5251359
-0.32776168 0.16830996 -1.2274551 5710112
-0.33222786 0.16722123 -1.2275916 4598055
-0.33699608 0.16738898 -1.2288245 3158574
-0.31279209 0.17303404 -1.2295501 2106401
-0.31693593 0.17287423 -1.2284147 2892834
-0.32229224 0.17277525 -1.2277117 5185311
-0.32774863 0.17273229 -1.2274063 5709856
-0.33221793 0.17275324 -1.227555 4793636
-0.33687499 0.17286967 -1.2283829 3158318
-0.31281632 0.17748453 -1.2296453 2106401
-0.31695834 0.17731944 -1.2285016 2893090
-0.32226214 0.17718886 -1.227597 5184799
-0.32774079 0.1771571 -1.2273771 5644320
-0.33221 0.17717859 -1.2275258 5121316
-0.33679929 0.17726244 -1.2281071 3223596
-0.34061784 0.17752057 -1.2298956 3158832
-0.31387711 0.18189339 -1.2294543 1909023
-0.31698284 0.1817665 -1.2285966 2696225
-0.32223487 0.18271059 -1.2274935 4857373
-0.32773104 0.18268782 -1.2273406 5644319
-0.33220011 0.18270995 -1.2274892 5383717
-0.33673397 0.18276648 -1.2278696 3156777
-0.3405304 0.18191189 -1.2295799 3027502
-0.31298795 0.18788132 -1.2294475 1843486
-0.31699544 0.18731546 -1.2286452 2630688
-0.32222879 0.18824381 -1.2274706 4988701
-0.3277213 0.18821821 -1.227304 5644575
-0.33218583 0.18823853 -1.2274365 5579811
-0.33664736 0.18825653 -1.2275546 2959397
-0.34042117 0.18739772 -1.2291855 2961453
-0.31262094 0.19289377 -1.2288774 1777693
-0.31746781 0.1929619 -1.2279009 3220255
-0.32259187 0.1924037 -1.2271668 5119518
-0.32764861 0.19260406 -1.2270319 5644320
-0.33207631 0.19260408 -1.2270319 5645092
-0.33650401 0.19260409 -1.2270319 3353127
-0.34106278 0.19325633 -1.2288316 3026988
-0.31250304 0.19725382 -1.2284148 1777691
-0.31771457 0.19704951 -1.2271428 3481630
-0.32291323 0.19684409 -1.2258643 5185309
-0.32743847 0.19690514 -1.2262443 5841440
-0.33193707 0.19694915 -1.2265174 5710370
-0.33754802 0.19699472 -1.2268014 3484970
-0.34260988 0.19736078 -1.2290814 2895660
-0.3094542 0.20297526 -1.229508 2698283
-0.31229994 0.20266235 -1.2276164 2957855
-0.31715667 0.20212847 -1.2260565 4792864
-0.32161823 0.20004426 -1.2251433 5185053
-0.32717371 0.20006211 -1.2252526 5841185
-0.332349 0.20188554 -1.2255886 6104870
-0.33760574 0.20212056 -1.2260078 4533547
-0.34234262 0.20274609 -1.2281226 4009003
-0.3039633 0.20867424 -1.2282363 5511705
-0.30783868 0.20706975 -1.2274908 4988444
-0.31179965 0.20676093 -1.2256494 6103586
-0.33936077 0.20671155 -1.2253566 6303279
-0.34350827 0.20772777 -1.2270092 6630701
-0.34592885 0.20733443 -1.229058 4597798
-0.28830713 0.21401289 -1.2291985 5184797
-0.2922309 0.21363877 -1.2270496 5249819
