# .PCD v0.7 - Point Cloud Data file format
VERSION 0.7
FIELDS x y z rgb
SIZE 4 4 4 4
TYPE F F F U
COUNT 1 1 1 1
WIDTH 908
HEIGHT 1
VIEWPOINT 0 0 0 1 0 0 0
POINTS 908
DATA ascii
0.19224906 -0.00095172849 -1.0549999 920889
0.18749042 -0.00095172838 -1.0549998 1512765
0.18273175 -0.00095172832 -1.0549998 2893382
0.17797308 -0.00095172826 -1.0549997 8401448
0.1722627 -0.00095172809 -1.0549995 7431250
0.16750404 -0.00095172803 -1.0549995 4078672
0.16274539 -0.00095172803 -1.0549994 6378826
0.15703501 -0.00095172785 -1.0549992 1906752
0.15227635 -0.00095172779 -1.0549991 7234133
0.14751771 -0.00095172768 -1.0549991 6708568
0.25220752 0.0028551784 -1.0549979 7497563
0.24744883 0.0028551782 -1.0549979 6904131
0.24269018 0.002855178 -1.0549979 5655886
0.2369798 0.0028551777 -1.0549977 6050898
0.23222116 0.0028551773 -1.0549976 5854814
0.2274625 0.002855177 -1.0549974 6181191
0.22270384 0.002855177 -1.0549974 8401191
0.21794519 0.0028551766 -1.0549973 5259859
0.21223482 0.0028551766 -1.0549972 2236486
0.20747617 0.0028551761 -1.0549971 2565444
0.20271751 0.0028551759 -1.054997 3814988
0.19700715 0.0028551756 -1.054997 2762567
0.19224851 0.0028551754 -1.0549968 855096
0.18748985 0.0028551754 -1.0549968 1578814
0.18273123 0.0028551749 -1.0549966 3025223
0.17797257 0.0028551745 -1.0549966 8406590
0.17226219 0.0028551738 -1.0549965 7497044
0.16750357 0.0028551742 -1.0549964 3947345
0.16274491 0.0028551735 -1.0549964 6181710
0.15703456 0.0028551733 -1.0549961 3156811
0.15227591 0.0028551733 -1.054996 6904133
0.14751728 0.0028551731 -1.054996 7037528
0.25220662 0.007613786 -1.0549943 7365718
0.24744797 0.0076137856 -1.0549941 6442806
0.24268933 0.0076137851 -1.0549941 4800324
0.23697896 0.0076137842 -1.054994 5655626
0.23222032 0.0076137837 -1.0549939 5393751
0.22746168 0.0076137832 -1.0549937 5851967
0.22270307 0.0076137828 -1.0549936 7941921
0.21794441 0.0076137814 -1.0549935 5650501
0.21223406 0.0076137804 -1.0549935 2038595
0.20747541 0.00761378 -1.0549934 855097
0.2027168 0.00761378 -1.0549933 1512760
0.19700645 0.0076137795 -1.0549933 1775415
0.19224782 0.0076137781 -1.0549932 920632
0.18748918 0.0076137763 -1.0549929 1907778
0.18273057 0.0076137763 -1.0549929 4731717
0.17797194 0.0076137763 -1.0549929 8144185
0.17226158 0.0076137749 -1.0549928 7694940
0.16750297 0.0076137744 -1.0549927 3025993
0.16274434 0.007613773 -1.0549926 4602951
0.15703399 0.0076137739 -1.0549924 5327446
0.15227537 0.0076137725 -1.0549924 6509112
0.14789748 0.0074234293 -1.0549924 7497817
0.25125396 0.012372357 -1.0549904 7431769
0.24744709 0.012372357 -1.0549903 6245429
0.24268846 0.012372355 -1.0549903 5063236
0.2369781 0.012372355 -1.0549903 4867150
0.2322195 0.012372353 -1.0549902 6051422
0.22746088 0.012372351 -1.0549901 6510155
0.22270225 0.012372351 -1.0549899 6373172
0.21794364 0.012372349 -1.0549897 8011577
0.21223328 0.012372348 -1.0549897 3353161
0.20747469 0.012372346 -1.0549897 1841730
0.20271608 0.012372347 -1.0549893 1184060
0.19700573 0.012372345 -1.0549893 1249596
0.19224712 0.012372344 -1.0549893 1841986
0.18748851 0.012372342 -1.0549893 2826304
0.18272988 0.012372341 -1.054989 7942957
0.17797129 0.012372341 -1.0549891 7684915
0.17226097 0.01237234 -1.054989 7235427
0.16750236 0.012372338 -1.0549889 3157063
0.16274376 0.012372336 -1.0549889 2893638
0.15703343 0.012372334 -1.0549886 7102290
0.15227483 0.012372334 -1.0549885 6508856
0.14846794 0.012372334 -1.0549884 7761247
0.2507771 0.017606746 -1.0549862 8353903
0.24744602 0.018082596 -1.0549859 6377272
0.2426874 0.018082596 -1.0549856 5983556
0.23697712 0.018082596 -1.0549856 2894153
0.23221847 0.018082594 -1.0549855 7630442
0.22745988 0.018082591 -1.0549855 7431771
0.22270128 0.018082587 -1.0549853 4930875
0.21794268 0.018082587 -1.0549853 6636347
0.21223238 0.018082585 -1.0549852 7811887
0.20747378 0.018082583 -1.054985 5318711
0.2027152 0.018082581 -1.0549849 4075336
0.19700488 0.018082581 -1.0549848 3877187
0.1922463 0.01808258 -1.0549848 5252403
0.18748768 0.018082576 -1.0549846 7874594
0.18272911 0.018082574 -1.0549845 7816246
0.17797053 0.018082574 -1.0549846 7628890
0.17226022 0.018082572 -1.0549843 3683660
0.16750164 0.018082572 -1.0549842 1907265
0.16274305 0.018082568 -1.0549842 6511710
0.15703276 0.018082567 -1.0549841 6574650
0.15227416 0.018082567 -1.054984 6772285
0.14894322 0.017606713 -1.0549843 8222834
0.25030047 0.021889402 -1.0549829 8484977
0.24744514 0.022841096 -1.0549821 7431252
0.24268652 0.02284109 -1.0549819 6443582
0.23697624 0.02284109 -1.0549818 3354186
0.23221765 0.022841088 -1.0549817 4999257
0.22745906 0.022841087 -1.0549816 8090472
0.22270049 0.022841085 -1.0549815 6904134
0.21794191 0.022841083 -1.0549815 5194043
0.21223161 0.022841081 -1.0549814 7032900
0.20747304 0.022841077 -1.0549811 8334628
0.20271446 0.022841075 -1.0549811 8399135
0.19700417 0.022841074 -1.054981 8468013
0.19224559 0.02284107 -1.0549809 8341823
0.18748702 0.022841066 -1.0549809 7558984
0.18272844 0.022841066 -1.0549808 7760992
0.17796986 0.022841066 -1.0549805 6050644
0.1722596 0.022841064 -1.0549805 1972800
0.16750103 0.022841062 -1.0549805 7038313
0.16274247 0.022841059 -1.0549804 6509636
0.15703218 0.022841057 -1.0549803 6574649
0.15227361 0.022841055 -1.05498 7694938
0.14941858 0.021889359 -1.0549809 7368044
0.24696846 0.027123712 -1.0549786 8485232
0.24268565 0.027599553 -1.0549781 6180413
0.23697534 0.027599551 -1.0549779 4472137
0.23221681 0.027599549 -1.0549779 4735054
0.22745825 0.027599545 -1.0549779 6051680
0.22269969 0.027599543 -1.0549778 7760733
0.21794112 0.02759954 -1.0549777 6904133
0.21223086 0.027599536 -1.0549775 6970704
0.20747229 0.027599534 -1.0549774 7827303
0.20271373 0.02759953 -1.0549773 7496016
0.19700345 0.02759953 -1.0549772 7430223
0.1922449 0.027599523 -1.0549771 7299408
0.18748634 0.027599525 -1.0549769 7168341
0.1827278 0.027599523 -1.0549769 5392976
0.17796923 0.027599521 -1.0549769 4472917
0.17225899 0.027599514 -1.0549767 6446180
0.16750041 0.027599514 -1.0549766 5195083
0.16274187 0.027599512 -1.0549766 6443064
0.15703161 0.02759951 -1.0549765 6904131
0.15259044 0.02633059 -1.0549774 8091505
0.24230415 0.032167647 -1.0549744 7629404
0.23697451 0.03235798 -1.0549742 6246725
0.23221597 0.032357976 -1.0549741 3946576
0.22745743 0.032357972 -1.054974 5459549
0.22269887 0.032357968 -1.0549738 6643553
0.21794032 0.032357965 -1.0549738 7826527
0.21223007 0.032357961 -1.0549737 6772544
0.20747153 0.032357961 -1.0549736 7563094
0.202713 0.032357961 -1.0549736 7826527
0.19700275 0.032357957 -1.0549735 7694683
0.19224422 0.03235795 -1.0549734 8090216
0.18748568 0.032357946 -1.0549732 7499116
0.18272714 0.032357946 -1.0549731 8156783
0.17796859 0.032357939 -1.054973 6446180
0.17225835 0.032357942 -1.0549729 6248022
0.16749981 0.032357935 -1.0549729 6574393
0.16274129 0.032357931 -1.0549728 6574649
0.15741174 0.032167595 -1.0549729 7892833
0.24078068 0.036164701 -1.0549712 8550766
0.23697367 0.037116371 -1.0549703 7233615
0.23221515 0.037116367 -1.0549703 4866377
0.22745661 0.037116364 -1.0549703 5130841
0.22269808 0.03711636 -1.0549701 6643557
0.21793954 0.037116356 -1.0549699 7235946
0.21222933 0.037116352 -1.05497 7169117
0.20747079 0.037116349 -1.0549698 6313035
0.20271227 0.037116345 -1.0549698 6312775
0.19700202 0.037116341 -1.0549697 6773584
0.19224353 0.037116338 -1.0549697 6905689
0.18748501 0.037116334 -1.0549693 5458772
0.18272647 0.03711633 -1.0549693 4801623
0.17796795 0.03711633 -1.0549693 6247504
0.17225772 0.037116326 -1.0549692 6509115
0.16749921 0.037116319 -1.054969 6641222
0.16274069 0.037116315 -1.054969 7563871
0.15893412 0.035212968 -1.0549704 8683642
0.23570393 0.041557509 -1.0549669 8418408
0.23202386 0.042445727 -1.0549661 7432027
0.22745563 0.042826388 -1.0549656 5786434
0.22269712 0.042826384 -1.0549655 4604756
0.21793862 0.042826381 -1.0549655 5196890
0.21222839 0.042826377 -1.0549653 7236202
0.2074699 0.042826369 -1.0549651 8025199
0.2027114 0.042826366 -1.0549651 7038312
0.1970012 0.042826366 -1.0549651 6643814
0.1922427 0.042826366 -1.054965 6972776
0.18748419 0.042826355 -1.0549648 6577244
0.18272568 0.042826351 -1.0549647 5326666
0.17796719 0.042826347 -1.0549645 7037532
0.17225698 0.04282634 -1.0549645 8156526
0.16768889 0.042445671 -1.0549648 8354422
0.16369191 0.040923003 -1.0549659 7762801
0.22697905 0.047108874 -1.0549623 8288110
0.2226963 0.047584701 -1.0549618 7760733
0.21793781 0.047584698 -1.0549617 7301740
0.21222763 0.047584686 -1.0549616 4736342
0.20746915 0.047584686 -1.0549614 3354701
0.20271066 0.047584683 -1.0549614 3288909
0.19700049 0.047584679 -1.0549612 3289165
0.19224201 0.047584675 -1.0549612 3420750
0.18748352 0.047584668 -1.0549611 4933721
0.18272503 0.047584664 -1.054961 6906726
0.17796655 0.047584664 -1.054961 8090993
0.17273229 0.047108829 -1.0549612 8025459
0.22174412 0.050439671 -1.0549594 8683900
0.21755655 0.051200993 -1.0549587 8617076
0.21198897 0.052105058 -1.0549579 8024684
0.20746842 0.052342966 -1.0549577 8551800
0.20270993 0.052342962 -1.0549576 8354164
0.19699977 0.052342959 -1.0549575 7828079
0.1922413 0.052342951 -1.0549574 8354163
0.18772081 0.052105032 -1.0549575 8222318
0.18272452 0.051391292 -1.054958 8354419
0.17891786 0.050439633 -1.0549586 8025715
0.21700224 -0.050443526 -1.0550401 8551284
0.2118628 -0.051204961 -1.0550406 8222058
0.20748471 -0.051395319 -1.0550406 7892577
0.20272586 -0.051395312 -1.0550406 8024420
0.19701524 -0.051395301 -1.0550404 8485748
0.19225639 -0.051395305 -1.0550402 8551541
0.18787824 -0.051204938 -1.05504 8485490
0.18273862 -0.050443497 -1.0550394 7958892
0.2255675 -0.046636339 -1.0550371 8683901
0.22271238 -0.047588136 -1.055038 8155751
0.21795355 -0.047588136 -1.0550377 6575946
0.21224293 -0.047588129 -1.0550376 5785399
0.20748413 -0.047588121 -1.0550375 6508342
0.20272528 -0.047588121 -1.0550375 6508598
0.19701467 -0.04758811 -1.0550373 6705980
0.19225585 -0.047588106 -1.0550373 7365201
0.18749703 -0.047588106 -1.0550371 8222316
0.18273821 -0.047588099 -1.055037 8485491
0.17805746 -0.047609624 -1.0555049 8157043
0.17417221 -0.046636298 -1.0550362 8749694
0.23508418 -0.0409256 -1.0550328 8154462
0.23191173 -0.041560125 -1.0550332 8156523
0.22747038 -0.042829171 -1.0550342 6839115
0.22271158 -0.042829167 -1.055034 6574134
0.21795277 -0.042829167 -1.0550339 6508342
0.2122422 -0.042829163 -1.0550339 6574391
0.20748338 -0.042829156 -1.0550338 6508599
0.20272456 -0.042829152 -1.0550337 6508598
0.19701397 -0.042829148 -1.0550336 6508343
0.19225515 -0.042829141 -1.0550333 6508600
0.18749633 -0.042829141 -1.0550332 5392718
0.18273756 -0.042829141 -1.0550332 3880784
0.17797872 -0.042829134 -1.0550332 5722975
0.17226818 -0.042829126 -1.0550331 8157041
0.16765592 -0.041915052 -1.0559613 8486265
0.16465385 -0.040925544 -1.0550314 7631216
0.24079369 -0.035214901 -1.0550283 8154462
0.23674904 -0.036880519 -1.0550296 7563354
0.2322282 -0.037118457 -1.0550297 5785913
0.22746941 -0.037118454 -1.0550294 6508599
0.22271062 -0.03711845 -1.0550295 6772027
0.2179518 -0.03711845 -1.0550294 7299405
0.21224128 -0.037118446 -1.0550294 7694939
0.20748247 -0.037118439 -1.055029 7826783
0.20272368 -0.037118439 -1.0550292 7826527
0.19701311 -0.037118431 -1.0550289 7563353
0.19225433 -0.037118431 -1.0550289 7233357
0.18749556 -0.037118427 -1.0550287 6640703
0.18273674 -0.037118424 -1.0550288 4800066
0.17797796 -0.03711842 -1.0550286 1775422
0.17226742 -0.037118413 -1.0550284 3091786
0.16750863 -0.037118409 -1.0550283 7499116
0.16298778 -0.036880463 -1.0550282 8091250
0.1589426 -0.035214845 -1.0550267 7697266
0.24174492 -0.03235957 -1.0550261 8155493
0.23698615 -0.032359567 -1.0550259 6705977
0.23222737 -0.032359563 -1.0550258 6705462
0.22746858 -0.032359563 -1.0550258 7299403
0.22270979 -0.032359559 -1.0550257 8353902
0.21795103 -0.032359559 -1.0550257 8485489
0.2122405 -0.032359552 -1.0550255 8353903
0.20748174 -0.032359548 -1.0550253 8288110
0.20272294 -0.032359544 -1.0550252 8288109
0.19701241 -0.032359537 -1.0550251 8288110
0.19225363 -0.03235954 -1.0550251 8353903
0.18749486 -0.032359537 -1.055025 8222059
0.1827361 -0.032359533 -1.0550249 7299668
0.17797734 -0.032359533 -1.0550249 4932688
0.1722668 -0.032359529 -1.0550247 4604760
0.16750804 -0.032359529 -1.0550246 2895178
0.16274926 -0.032359522 -1.0550245 6775399
0.1575972 -0.032205619 -1.0562291 8288887
0.24650264 -0.026648946 -1.0550215 8418923
0.24269582 -0.027600711 -1.0550224 6510153
0.2369853 -0.027600709 -1.0550222 6705721
0.23222652 -0.027600707 -1.0550221 7760731
0.22746776 -0.027600706 -1.055022 8419696
0.22270902 -0.0276007 -1.0550219 8419696
0.21795025 -0.027600698 -1.0550218 8221801
0.21223973 -0.027600698 -1.0550218 7497042
0.20748098 -0.027600691 -1.0550216 7167303
0.20272222 -0.027600691 -1.0550215 7035459
0.19701169 -0.027600687 -1.0550213 7101510
0.19225295 -0.027600685 -1.0550213 7299407
0.18749419 -0.027600683 -1.0550213 7958627
0.18273543 -0.027600678 -1.0550212 8353902
0.17797668 -0.027600678 -1.055021 4341587
0.17226619 -0.027600676 -1.0550208 2236739
0.16750744 -0.027600676 -1.0550208 7170151
0.16274868 -0.027600672 -1.0550208 4275795
0.15703818 -0.027600668 -1.0550207 8354420
0.15323108 -0.026648898 -1.0550199 8288887
0.24745367 -0.022841888 -1.0550185 7892318
0.24269493 -0.022841886 -1.0550184 6114102
0.23698445 -0.022841884 -1.0550183 7760731
0.23222569 -0.02284188 -1.0550182 8419695
0.22746696 -0.022841878 -1.0550182 8419695
0.22270821 -0.022841878 -1.0550181 8089699
0.21794944 -0.022841873 -1.0550181 6837822
0.21223895 -0.022841871 -1.0550178 6837307
0.20748022 -0.022841869 -1.0550177 7619890
0.20272149 -0.022841869 -1.0550176 8008998
0.19701098 -0.022841863 -1.0550175 8011569
0.19225225 -0.022841863 -1.0550175 7557953
0.18749352 -0.022841861 -1.0550174 6837308
0.18273479 -0.02284186 -1.0550172 7563095
0.17797604 -0.022841856 -1.0550172 7959404
0.17226556 -0.022841854 -1.0550171 1709887
0.16750683 -0.022841852 -1.055017 3880782
0.1627481 -0.02284185 -1.0550169 6577761
0.15703762 -0.022841848 -1.0550168 5985631
0.15227889 -0.022841848 -1.0550168 8486521
0.25030804 -0.018083097 -1.0550147 8485490
0.24745278 -0.018083097 -1.0550147 6904130
0.24269405 -0.018083096 -1.0550147 7035461
0.23698358 -0.018083094 -1.0550145 8419696
0.23222487 -0.01808309 -1.0550145 8419696
0.22746612 -0.01808309 -1.0550144 7958370
0.22270741 -0.018083088 -1.0550143 6771771
0.21794866 -0.018083088 -1.0550141 7097655
0.21223821 -0.018083084 -1.0550141 8202011
0.20747946 -0.018083083 -1.0550138 7020833
0.20272075 -0.018083083 -1.0550139 5776687
0.19701028 -0.018083079 -1.0550138 5776687
0.19225155 -0.018083077 -1.0550137 7226180
0.18749282 -0.018083075 -1.0550135 8278086
0.18273412 -0.018083075 -1.0550135 7162935
0.1779754 -0.018083073 -1.0550134 7563095
0.17226493 -0.018083073 -1.0550132 4604499
0.16750623 -0.018083069 -1.0550132 6117987
0.16274749 -0.018083068 -1.0550131 7038310
0.15703705 -0.018083066 -1.0550131 4472916
0.15227833 -0.018083064 -1.0550128 7893353
0.1490664 -0.017620262 -1.055865 8223093
0.25125867 -0.012372593 -1.0550103 7958112
0.24745171 -0.012372593 -1.0550102 6771771
0.24269302 -0.012372592 -1.0550101 8024420
0.23698255 -0.01237259 -1.0550101 8485490
0.23222385 -0.012372588 -1.05501 8354159
0.22746512 -0.012372587 -1.0550097 6969665
0.22270642 -0.012372586 -1.0550097 6968123
0.21794772 -0.012372586 -1.0550096 8202011
0.21223728 -0.012372584 -1.0550094 3677750
0.20747857 -0.012372583 -1.0550094 920376
0.20271987 -0.012372581 -1.0550094 1051962
0.19700941 -0.012372579 -1.0550091 1315132
0.19225071 -0.012372578 -1.055009 1710144
0.18749204 -0.012372579 -1.0550091 4468804
0.18273333 -0.012372577 -1.0550089 8400676
0.17797463 -0.012372577 -1.0550089 7293752
0.17226419 -0.012372575 -1.0550085 7301219
0.16750549 -0.012372573 -1.0550085 3683661
0.16274679 -0.012372572 -1.0550084 6445396
0.15703638 -0.012372572 -1.0550084 4209490
0.15227768 -0.012372569 -1.0550083 6971485
0.1481552 -0.012107286 -1.0556773 7761766
0.25182876 -0.0074235266 -1.0550063 8419438
0.24745081 -0.0076138745 -1.0550064 8354161
0.24269213 -0.0076138736 -1.0550063 8617592
0.2369817 -0.0076138731 -1.0550061 8683385
0.23222299 -0.0076138722 -1.055006 8683384
0.2274643 -0.0076138726 -1.0550059 8551541
0.22270563 -0.0076138712 -1.0550059 8612451
0.21794692 -0.0076138698 -1.0550058 7755092
0.21223651 -0.0076138694 -1.0550057 4341589
0.20747782 -0.0076138694 -1.0550056 3683920
0.20271914 -0.0076138689 -1.0550054 2236740
0.19700871 -0.0076138671 -1.0550053 1118266
0.19225003 -0.0076138671 -1.0550053 985913
0.18749134 -0.0076138657 -1.0550052 1776448
0.18273267 -0.0076138657 -1.0550051 5974065
0.17797397 -0.0076138652 -1.055005 7943463
0.17226358 -0.0076138638 -1.0550048 7694939
0.16750489 -0.0076138638 -1.0550048 3157322
0.16274622 -0.0076138624 -1.0550046 5984328
0.1570358 -0.0076138619 -1.0550046 3814736
0.15227711 -0.007613861 -1.0550045 5590098
0.14759567 -0.0076181046 -1.0555639 7300956
0.25220859 -0.0028551947 -1.0550027 8617592
0.24744995 -0.0028551945 -1.0550026 8617593
0.24269125 -0.002855194 -1.0550025 8683643
0.23698083 -0.0028551938 -1.0550025 8749436
0.23222215 -0.0028551936 -1.0550023 8749436
0.22746347 -0.0028551933 -1.0550021 8683643
0.22270481 -0.0028551929 -1.0550019 8749179
0.21794614 -0.0028551926 -1.055002 8683643
0.21223575 -0.0028551924 -1.0550017 8617851
0.20747708 -0.0028551922 -1.0550017 8552314
0.20271841 -0.0028551919 -1.0550016 8354681
0.197008 -0.0028551915 -1.0550016 3420493
0.19224948 -0.0038069228 -1.0550022 920633
0.18749081 -0.0038069226 -1.0550021 1118009
0.18273214 -0.0038069219 -1.055002 4009542
0.17797348 -0.0038069219 -1.055002 8270116
0.17226307 -0.0038069214 -1.0550019 7497044
0.1675044 -0.0038069212 -1.0550017 3815246
0.16274574 -0.0038069205 -1.0550016 6312777
0.15703534 -0.00380692 -1.0550015 2762056
0.15227668 -0.0038069198 -1.0550014 6774101
0.14751802 -0.0038069198 -1.0550014 6971994
0.14577121 0.0085747819 -1.0561363 7565677
0.14595972 0.010493842 -1.057502 6973283
0.14805964 0.018149257 -1.0588748 6907489
0.15326443 0.02951056 -1.0552495 7368300
0.15822345 0.036218867 -1.0565884 7368043
0.16497409 0.042912357 -1.0570834 7170665
0.17323922 -0.046899039 -1.0609801 7236460
0.16991429 -0.045118507 -1.0641338 6973032
0.15324908 -0.027777236 -1.0617352 7302247
0.15016174 -0.02199823 -1.060228 7301989
0.14859904 -0.018215377 -1.0627325 6511443
0.14685851 -0.012478182 -1.064014 6116684
0.14502171 0.00096040923 -1.0646226 5985095
0.1466233 0.013418471 -1.0623099 5985356
0.15028253 0.023930352 -1.0610808 6051663
0.14866298 0.020141449 -1.0631897 5853768
0.15234029 0.027785353 -1.0620801 6051665
0.15598676 0.033494107 -1.0608152 6907491
0.15448493 0.031664632 -1.0636528 6315354
0.1674946 0.044984285 -1.0609682 6907235
0.17735042 0.050808523 -1.062674 6379604
0.16183242 -0.038532265 -1.0678084 7433320
0.15920983 -0.035701618 -1.0696102 7170146
0.15335535 -0.027970489 -1.0691569 7301733
0.15128203 -0.02408951 -1.0681379 6181442
0.14921267 -0.020215921 -1.0671209 5786945
0.14745979 -0.014456851 -1.0683703 5063484
0.14538039 -0.0028900327 -1.0672559 5721406
0.14530565 0.0038497862 -1.0667071 5655614
0.14559042 0.006749229 -1.0687977 5326390
0.14752369 0.016391531 -1.0688332 5260340
0.14933375 0.022159215 -1.0679868 5392184
0.15140411 0.026037665 -1.0689999 5326648
0.16091006 0.039504886 -1.0680863 6314839
0.17234933 0.048141677 -1.0673413 5788760
0.16549532 -0.041615803 -1.0728258 6183517
0.15770049 -0.033862088 -1.0724698 6577754
0.14806603 -0.016451791 -1.0727626 4405041
0.14630839 -0.010658234 -1.0740684 4997169
0.14585716 -0.0077281697 -1.0707557 5391667
0.14578095 0.008688936 -1.0701964 5128752
0.14617208 0.011617657 -1.0730677 4996908
0.14813051 0.018395303 -1.0732298 4996908
0.15347834 0.029923469 -1.0700144 5591635
0.15865776 0.036761183 -1.0724095 5788753
0.16329961 0.041549627 -1.0711198 5459792
0.16805592 -0.043713991 -1.0768304 4933457
0.15618306 -0.032012697 -1.0753447 5590866
0.1546575 -0.030153366 -1.0782351 5854554
0.15241915 -0.026212227 -1.0761666 7038302
0.15033315 -0.022307513 -1.0751343 5522995
0.14867726 -0.0184632 -1.0771911 4667693
0.14691313 -0.012648158 -1.0785078 4602414
0.14502117 0.00097329705 -1.0789089 5128493
0.14697753 0.014600425 -1.0789806 4865323
0.15045568 0.024267061 -1.0760106 5062702
0.14874235 0.02041563 -1.0776627 4865066
0.15254261 0.028176676 -1.0770383 5525584
0.15638921 0.033997674 -1.076764 5065033
0.15486573 0.032141961 -1.0796869 4341833
0.1658475 0.0436441 -1.0751088 4538697
0.1684144 0.045754228 -1.0791274 4275783
0.17869595 -0.049800538 -1.0824385 6509126
0.16123258 -0.038109537 -1.0831995 4275533
0.1535735 -0.028367097 -1.084317 5196629
0.1514706 -0.024430756 -1.0832689 6906459
0.14937176 -0.020502018 -1.0822228 5259566
0.14752285 -0.014654596 -1.0829839 4996653
0.14577091 -0.0068483022 -1.0844867 5194029
0.1453847 -0.0029289343 -1.0816134 5128237
0.14530924 0.0039015659 -1.0810519 5062701
0.1456944 0.0078231711 -1.0839175 4865323
0.14758787 0.016615862 -1.0834612 4799530
0.14949451 0.022473045 -1.0831122 4930859
0.15159449 0.026406799 -1.084155 5854288
0.17532013 -0.047992684 -1.0857213 5920345
0.17192373 -0.046173826 -1.0890238 5262164
0.16380195 -0.040214874 -1.0872821 4867666
0.15966542 -0.036243092 -1.0858326 3222853
0.15813436 -0.034377053 -1.0887796 2104379
0.14813767 -0.016677761 -1.0874974 5259564
0.14635597 -0.010804811 -1.0888394 5128236
0.14596501 -0.0088166837 -1.0859307 5128236
0.14620274 0.011776188 -1.0876994 4799530
0.14820331 0.01864811 -1.0879792 4799273
0.15369833 0.030348094 -1.0851983 3157311
0.15986958 0.038251024 -1.087221 3355201
0.16286853 0.041209102 -1.0875864 4012612
0.16639076 -0.042336132 -1.0913954 4736080
0.15582108 -0.031557649 -1.0932324 1512246
0.15262541 -0.026586376 -1.0915277 6841442
0.15050946 -0.022625618 -1.0904657 6709078
0.14875773 -0.01871787 -1.0920492 5325358
0.14696924 -0.012822827 -1.0934019 5193772
0.14519389 -0.00098771416 -1.0948904 5062443
0.14502063 0.00098653557 -1.0935839 5062444
0.14703478 0.014802168 -1.0938895 4799531
0.15063378 0.024613379 -1.0913664 6051407
0.1488239 0.020697376 -1.092535 4865323
0.15275069 0.028579177 -1.0924237 4472904
0.15680394 0.03451661 -1.0931996 3881026
0.15834096 0.036388937 -1.0902021 3486529
0.16675118 0.044401225 -1.0937594 4144197
0.17271933 0.048361436 -1.0940634 4144197
0.17613883 0.050184835 -1.0907913 4537923
0.16899893 -0.044473428 -1.095538 5130835
0.15379822 -0.028775167 -1.0999153 2762305
0.1516646 -0.024781812 -1.0988349 7236197
0.14953542 -0.020796331 -1.0977584 6511441
0.14758767 -0.014857828 -1.0980028 5193772
0.14578061 -0.0069419383 -1.0993148 4996655
0.14548674 -0.0039594905 -1.0970987 5062701
0.14531289 0.003954757 -1.0957878 5062701
0.14570335 0.0079301046 -1.0987321 4865068
0.14765385 0.016846422 -1.0984951 4799531
0.14965992 0.022795893 -1.0986723 5919562
0.15179034 0.026786547 -1.0997459 6117460
0.15525819 0.032633908 -1.0962119 4473160
0.16936624 0.046550982 -1.0979191 4078148
0.16109842 -0.037788391 -1.1023421 1578296
0.14821132 -0.016910026 -1.1026425 5259827
0.14640486 -0.010955472 -1.1040221 4866103
0.14597762 -0.008937411 -1.1008004 4799535
0.14623424 0.011939107 -1.1027355 5194807
0.14827815 0.018907964 -1.1031398 4076591
0.15392464 0.030784948 -1.1008195 5657170
0.16034204 0.03884064 -1.1039798 4670280
0.16241878 0.040853824 -1.1045573 4341317
0.16467996 -0.040920496 -1.1063598 5459799
0.15780064 -0.033956036 -1.107121 1117491
0.15283762 -0.026971361 -1.1073335 6183517
0.15069087 -0.022952927 -1.1062406 7170404
0.1488408 -0.018979711 -1.1073257 6709079
0.14702691 -0.01300239 -1.1087132 4669504
0.14502005 0.0010001389 -1.1086634 3090741
0.14709365 0.015009568 -1.1092165 5064256
0.15081704 0.024969723 -1.1071669 6315353
0.14890774 0.020987008 -1.1078236 3814459
0.15296479 0.028993346 -1.108255 6249044
0.15879112 0.036951415 -1.1070538 5131087
0.16504221 0.043011025 -1.1087936 4275783
0.17750037 -0.049138546 -1.1116437 5522754
0.16731772 -0.043081835 -1.1106191 6248791
0.15544899 -0.031089818 -1.1117212 1117490
0.15186425 -0.025143104 -1.1148547 7236197
0.14970386 -0.021099217 -1.1137466 6972510
0.14765428 -0.015066774 -1.113444 3024955
0.14569117 -0.0060292897 -1.1137941 3880773
0.14529459 -0.0020047466 -1.1107622 5459534
0.14521776 0.0030045074 -1.1101749 4735815
0.14561346 0.0070314431 -1.1132001 3091004
0.14772166 0.01708347 -1.1139522 2696758
0.14983009 0.023128152 -1.1146858 4078406
0.15566285 0.033141144 -1.1132506 6183250
0.15723151 0.035051633 -1.1101447 6183510
0.16768675 0.045185082 -1.1130686 4077889
0.17228311 -0.046344467 -1.1168482 5327434
0.1606176 -0.037376449 -1.1197877 1249076
0.1540295 -0.029195154 -1.1159691 1972537
0.14828704 -0.017148852 -1.1182156 4604492
0.14645512 -0.011110396 -1.1196344 5788757
0.14599061 -0.009061492 -1.1160833 3683911
0.1460108 0.01107669 -1.1162376 4473419
0.14835508 0.019175159 -1.1187286 3815237
0.1519919 0.027177379 -1.1157918 6315096
0.15415756 0.031234561 -1.1168969 6182993
0.1783565 0.051390886 -1.1170055 4800061
0.16292156 -0.039465498 -1.1217403 3880519
0.15904292 -0.035455454 -1.1229343 985906
0.15305622 -0.027367687 -1.1236051 4999507
0.15087757 -0.023289841 -1.1224786 7170404
0.14892621 -0.019248981 -1.1230356 6775129
0.14708625 -0.013187052 -1.1244593 5262417
0.1450195 0.0010141231 -1.1241649 3682619
0.14652243 0.013136503 -1.120149 5460048
0.1471542 0.015222859 -1.1249788 3814716
0.14899394 0.021284863 -1.1235462 4407108
0.15209545 0.02737812 -1.123992 5788753
0.16082929 0.039448719 -1.1212635 4078404
0.15925542 0.037531555 -1.1244346 5065037
0.16328621 0.04158223 -1.124251 4012096
0.17310353 0.048589811 -1.1221664 3880508
0.1655893 -0.041651323 -1.1261191 5195850
0.15666057 -0.032551736 -1.1276715 986161
0.14772283 -0.015281682 -1.1293259 6315098
0.14559919 -0.0050908844 -1.1286587 5392703
0.14529784 -0.0020328404 -1.1263227 5524549
0.14521995 0.0030465745 -1.1257188 4537918
0.145521 0.0061064819 -1.1280525 5129532
0.14779143 0.017327284 -1.1298504 5788754
0.15767258 0.035603508 -1.1276236 5657168
0.1659603 0.043780964 -1.1286421 3880250
0.16827749 -0.043854162 -1.130529 4932421
0.15316872 -0.027571332 -1.1319234 4341582
0.14987729 -0.021411058 -1.1302075 6972509
0.1483653 -0.017394565 -1.1342375 6709079
0.14590251 -0.0081630936 -1.1310099 5063223
0.14582263 0.0091776541 -1.1303906 4866102
0.14602445 0.011232658 -1.1319551 4931635
0.14843424 0.019450016 -1.1347646 6051405
0.15000533 0.023470238 -1.131173 5525582
0.15219942 0.027579781 -1.1323128 5591376
0.15608029 0.033664398 -1.1308273 5393741
0.15447766 0.031713977 -1.13404 4736329
0.16865598 0.045997113 -1.1330718 3814199
0.1865536 0.054029211 -1.1300356 4997182
0.16111608 -0.037970055 -1.1375719 1446966
0.15106985 -0.023636796 -1.1392004 7236197
0.1490141 -0.019525999 -1.1391976 6774872
0.14650683 -0.011269764 -1.1356945 5984582
0.14657539 0.013325045 -1.1362259 5194548
0.14908265 0.021591295 -1.1397215 6051149
0.17623845 -0.048439834 -1.1424683 5129028
0.16381194 -0.040180311 -1.1420578 3157313
0.15951778 -0.036020167 -1.1408198 1709879
0.15790969 -0.034058973 -1.1440816 2235960
0.15328151 -0.027775861 -1.1403631 3881034
0.14714727 -0.013377034 -1.1406591 6643286
0.14560686 -0.0051633678 -1.1447283 5193773
0.14530124 -0.002061733 -1.1423254 5062444
0.14512055 0.00205917 -1.140905 5128494
0.14552782 0.0061933999 -1.1441069 5062445
0.1472165 0.015442301 -1.1411957 6051406
0.15230606 0.027786531 -1.1407584 4736073
0.15973452 0.038130201 -1.1423699 3552318
0.16283469 0.041225508 -1.1424155 4012351
0.17266694 -0.046527047 -1.1461259 5458504
0.16653161 -0.042408697 -1.1465961 4406597
0.15629126 -0.032086305 -1.1473539 3091003
0.15228157 -0.025898244 -1.1483378 6972509
0.15005592 -0.02173225 -1.1471621 6906716
0.14779334 -0.015502808 -1.1456672 6577492
0.14591479 -0.008279589 -1.1471491 5786943
0.14583379 0.0093085468 -1.1465124 4997166
0.14603852 0.011393083 -1.1481218 5194805
0.14786322 0.017578159 -1.146209 6051148
0.15018584 0.023822598 -1.1481553 6051406
0.1524132 0.027994281 -1.1493305 5393998
0.15651113 0.034204442 -1.148968 3748921
0.15812775 0.036173042 -1.1456616 3354682
0.16691186 0.044578973 -1.1492141 3880250
0.17710926 0.050750636 -1.1481134 5457213
0.16927227 -0.044654675 -1.1511657 4998472
0.15466353 -0.030102318 -1.1506449 3814205
0.1484459 -0.017647428 -1.1507258 6577492
0.14656007 -0.011433772 -1.1522222 6314320
0.14662987 0.013519077 -1.152771 5722184
0.14851567 0.019732866 -1.1512667 5853769
0.15488395 0.032224201 -1.1522847 3946297
0.17351258 0.048832908 -1.1517391 4735037
0.16099574 -0.037635103 -1.158869 5326658
0.15351361 -0.028196396 -1.1576285 5589569
0.15126795 -0.023994243 -1.156428 6511699
0.14910455 -0.019811109 -1.1558316 6380112
0.14721009 -0.013572572 -1.1573325 5656135
0.14530468 -0.0020914585 -1.1587894 4997428
0.14512141 0.0020888213 -1.1573279 4997173
0.14543135 0.0052313474 -1.1597996 4537141
0.14728059 0.015668159 -1.1578867 5063999
0.14917392 0.021906674 -1.1563692 5459012
0.15140007 0.026103478 -1.157438 5722183
0.15364607 0.03031115 -1.1586274 5129531
0.16989689 0.046904076 -1.1554135 4668732
0.16473517 -0.040921502 -1.1631248 6247756
0.15837584 -0.034611963 -1.1626571 5852738
0.15023997 -0.022063229 -1.1646332 5195072
0.14786611 -0.015730448 -1.16249 4800573
0.14582324 -0.007345621 -1.1629248 4602419
0.1457417 0.0083887624 -1.1622746 4273712
0.146053 0.011558159 -1.1647571 4273710
0.14793712 0.017836403 -1.1630483 4602933
0.16022916 0.038748253 -1.1608865 4931893
0.15859771 0.036761083 -1.1642859 5260342
0.16236293 0.040852632 -1.1611674 4932154
0.16750847 -0.043194033 -1.167829 6378056
0.15590644 -0.031601455 -1.1677403 5654585
0.15250008 -0.026293134 -1.1658474 5194554
0.14852892 -0.017907754 -1.1677008 4602419
0.14661486 -0.011602623 -1.1692379 4141870
0.14668599 0.013718843 -1.169805 4076332
0.15037183 0.024185697 -1.1656553 4471348
0.14859954 0.020024065 -1.168256 3879214
0.15263349 0.028421428 -1.1668674 4668725
0.15695602 0.034762092 -1.1677002 4997428
0.16511735 0.043119844 -1.1658232 5457725
0.17855857 -0.049658332 -1.171207 6900280
0.15147215 -0.02436267 -1.1741847 4994863
0.14919768 -0.020104667 -1.1729585 4601134
0.14727478 -0.013773909 -1.1745006 4534826
0.14520358 -0.0010598808 -1.1748879 4798251
0.14501765 0.0010585238 -1.1733836 4601644
0.1493289 0.022240492 -1.1739901 4206377
0.15530354 0.032751106 -1.1711261 4733490
0.16789876 0.04540661 -1.1705501 5456699
0.17306553 -0.046716303 -1.1769862 6571068
0.16051424 -0.037205312 -1.1783553 6966852
0.15375285 -0.028629862 -1.1754248 5323313
0.14794134 -0.015964903 -1.1798164 5582885
0.14572887 -0.0063830619 -1.1791382 5388333
0.14541292 -0.0031842268 -1.1765817 4995630
0.14522691 0.0031801537 -1.1750767 4798251
0.14554183 0.0063748667 -1.1776249 5059625
0.14734663 0.015900725 -1.1750736 4535082
0.15160625 0.026504606 -1.1752242 4534570
0.15388714 0.030777451 -1.1764514 4731692
0.16569284 -0.041690484 -1.1849818 6900548
0.1628861 -0.03939078 -1.1801364 7034445
0.15885672 -0.035183053 -1.1818408 6633261
0.15272535 -0.026700255 -1.1838993 6104862
0.15042976 -0.022404447 -1.1826447 5974303
0.14604634 -0.0095942924 -1.181707 5780522
0.14585708 0.0095818592 -1.1801757 5320484
0.146079 0.01172898 -1.1819713 5515808
0.14801323 0.018102352 -1.1803898 5323827
0.1505636 0.024560036 -1.183697 5645852
0.1528606 0.028861811 -1.1849477 5579290
0.16074011 0.039386675 -1.1800134 5784891
0.15908322 0.037368566 -1.1835259 5716015
0.16327463 0.041619048 -1.1829515 5912367
0.17208907 0.048099458 -1.18486 5322804
0.17579055 0.050073702 -1.1810036 5258039
0.16852216 -0.044009 -1.1898632 6703171
0.15634973 -0.032125421 -1.1871028 6563354
0.14861439 -0.018175874 -1.1851839 6366234
0.1466713 -0.011776536 -1.1867636 6430999
0.14674376 0.013924601 -1.18735 6038040
0.1486859 0.020323986 -1.1857542 5908510
0.15741564 0.03533823 -1.1870533 5782067
0.16608493 0.043932173 -1.187786 5843492
0.15399958 -0.029076863 -1.1937768 7020309
0.15168293 -0.024742622 -1.1924969 6953745
0.14937222 -0.0204178 -1.1912276 6822159
0.14734143 -0.013981313 -1.1921859 6756110
0.14531192 -0.0021535577 -1.1931833 6637378
0.1451232 0.0021507617 -1.1916337 6432543
0.14544237 0.0053867581 -1.1942544 6362894
0.14741461 0.016140297 -1.1927781 6306613
0.14950581 0.022587223 -1.1922928 6101521
0.15181886 0.026918257 -1.1935656 6167058
0.15573706 0.033295531 -1.1905938 6111803
0.15413575 0.031258319 -1.1948324 6169885
0.16892299 0.046265561 -1.1926932 5514785
0.16103746 -0.037827618 -1.1980648 7026480
0.14801884 -0.016206453 -1.197667 6757395
0.1458465 -0.0075645372 -1.1975728 6566956
0.14576262 0.0086385813 -1.196884 6167314
0.14612821 0.011906751 -1.199886 5906712
0.14809164 0.018376349 -1.1982561 6180168
0.16382301 -0.040142089 -1.2026454 5324101
0.15935369 -0.035773303 -1.2016679 6894377
0.15295772 -0.027120182 -1.2025191 6236451
0.15062547 -0.022756383 -1.2012221 6432543
0.14870247 -0.018452145 -1.2031986 6105636
0.14672944 -0.011955741 -1.2048228 5713448
0.1507614 0.024946148 -1.202306 5514271
0.14877492 0.020633033 -1.2037847 5319206
0.15309487 0.02931606 -1.2035973 5384225
0.15958506 0.037996467 -1.2034125 5519409
0.16137697 0.040073503 -1.2005906 5323577
0.17725804 -0.0489363 -1.2054744 5125687
0.1734924 -0.046919357 -1.2095476 3874866
0.16668695 -0.042488858 -1.2076743 3942972
0.15680735 -0.032666922 -1.2071136 6175023
0.14501637 0.0010903495 -1.2086626 4665905
0.14680332 0.014136626 -1.2054294 5188647
0.15789078 0.035933785 -1.2070588 5126709
0.1642212 0.042414773 -1.2055686 4008500
0.16970117 -0.044888724 -1.2136481 3286074
0.1530773 -0.027336337 -1.2120507 4929074
0.14955264 -0.020740891 -1.2100775 5256750
0.14741057 -0.014195102 -1.2104157 5125934
0.14564079 -0.0054752217 -1.2138669 3812654
0.14531584 -0.0021860139 -1.2111585 4601393
0.14523192 0.0032759104 -1.2104591 4205870
0.14555652 0.0065672798 -1.2131646 4207149
0.14748472 0.016387202 -1.2110245 4469549
0.14968832 0.02294494 -1.2111753 4731690
0.15203825 0.027345028 -1.2124888 4600618
0.15618525 0.033858363 -1.2107198 4404532
0.15446936 0.031770315 -1.2144032 3943725
0.16708973 0.04477571 -1.2105925 2889257
0.17818733 0.0513792 -1.2117941 4402996
0.14809869 -0.016455423 -1.216066 3878960
0.14598142 -0.0087817675 -1.2167058 3352877
0.14588183 0.0098717101 -1.2158759 3484462
0.14617892 0.012089994 -1.218352 3616043
0.14817247 0.018658768 -1.2166717 3878955
0.1724886 0.04833997 -1.2178946 2692906
0.18579131 0.053868517 -1.2186481 4928306
0.16189633 -0.038546771 -1.2208416 3090238
0.15986766 -0.036383696 -1.2221718 2761788
0.15319751 -0.027553529 -1.2217338 3287862
0.15082753 -0.023119565 -1.2203931 4076594
0.14879328 -0.018736944 -1.2217693 3813424
0.1467894 -0.012140485 -1.2234402 3681837
0.1468647 0.014355207 -1.2240678 3418666
0.14886665 0.020951618 -1.2223718 3287338
0.15215108 0.027564712 -1.2221763 3024683
0.16010404 0.038645826 -1.2239789 1643821
0.16230108 0.040851317 -1.2238938 1972270
0.16479596 -0.040922515 -1.2260268 1775159
0.15728037 -0.033226926 -1.2278082 2433082
0.14973889 -0.021074377 -1.2295339 2893108
0.14748186 -0.01441553 -1.2292116 3419443
0.14521012 -0.0011084749 -1.2287549 3221807
0.14512511 0.0022164872 -1.2280356 3352878
0.14755698 0.016641775 -1.2298377 2629677
0.15838219 0.036549762 -1.2277501 1578542
0.16520464 0.043241512 -1.2290672 1183277
0.16771987 -0.043318406 -1.2312528 1644344
0.15467045 -0.030043919 -1.2334802 2038841
0.15212505 -0.02553926 -1.2308917 2499128
0.14576048 -0.0066769007 -1.233412 2827571
0.14542964 -0.0033304521 -1.2306125 3156273
0.14556412 0.0066679046 -1.2317505 2695983
0.14589475 0.010023311 -1.2345482 2301488
0.1498767 0.023314169 -1.2306654 2564142
0.15226468 0.027785543 -1.2320215 1644077
0.15664884 0.034440551 -1.2315378 1644592
0.16813384 0.045652263 -1.2342918 1775153
0.14818107 -0.016712163 -1.2350392 2564921
0.14615521 -0.010041204 -1.2367522 2367542
0.1462312 0.012278966 -1.2373953 1906991
0.1482558 0.018950002 -1.2356621 2169905
0.1549048 0.03231829 -1.2353492 1644849
0.17587914 -0.048170749 -1.2418076 2104377
0.16162305 -0.038161561 -1.2441666 1775672
0.15344508 -0.028000947 -1.2415725 1973564
0.15103641 -0.02349457 -1.2401881 1578295
0.14888692 -0.019030673 -1.2409223 1841720
0.14685155 -0.012331055 -1.2426445 2236475
0.14692803 0.014580655 -1.2432917 1644082
0.14896128 0.021280197 -1.241542 2038581
0.15117623 0.02575597 -1.2413362 1512240
0.15358625 0.030268844 -1.2427148 1447730
0.17199478 -0.046090133 -1.2461303 2170170
0.1586498 -0.034880478 -1.2472689 2564666
0.14993121 -0.021418758 -1.249626 1841203
0.1475554 -0.014642913 -1.2486005 2170681
0.1453241 -0.0022539531 -1.2487848 1907253
0.14512612 0.00225088 -1.2470834 1710130
0.14546014 0.005637994 -1.2499539 2170675
0.14763151 0.016904384 -1.2492446 1775665
0.16064104 0.039317761 -1.2452602 1512497
0.15889074 0.037187219 -1.249163 2038576
0.16326177 0.041659929 -1.2481195 1446704
0.1768266 0.050682809 -1.2484971 3483957
0.1658074 -0.041733861 -1.2503345 1906999
0.1568892 -0.0327323 -1.2511746 2104378
0.15235697 -0.02595713 -1.2510314 1644343
0.14826605 -0.01697704 -1.2546139 2498352
0.14577167 -0.0067809531 -1.2526309 2367282
0.14568375 0.0079053259 -1.2518754 1710127
0.14590804 0.010179639 -1.2538028 1381422
0.15007122 0.023695471 -1.250793 2433076
0.15249853 0.028240487 -1.2521938 1578288
0.15712868 0.035043109 -1.2530844 2038317
0.16622721 0.044101123 -1.2535002 1643825
0.17291766 0.048597805 -1.2528168 2235957
0.16879393 -0.044180989 -1.2557703 2564922
0.15511748 -0.030570621 -1.2551044 1512502
0.14620768 -0.010200542 -1.2563775 2103856
0.14628516 0.012473938 -1.2570434 1512749
0.14834177 0.019250473 -1.2552547 1446444
0.15535551 0.032885496 -1.2570304 2301743
0.16921966 0.04656383 -1.2589376 3681847
0.15370083 -0.028463136 -1.2620661 1314868
0.15125215 -0.023881935 -1.2606356 2366771
0.14898355 -0.019333757 -1.2606853 2169391
0.14691585 -0.012527718 -1.262463 1249071
0.14699337 0.014813296 -1.263129 1709611
0.14905892 0.021619247 -1.2613231 1512235
0.15139394 0.026180923 -1.2618173 2695724
0.15384412 0.030768845 -1.2632427 1381165
0.16095006 -0.037669189 -1.265353 3090748
0.15917115 -0.035498623 -1.2693728 3748158
0.14763132 -0.014877585 -1.268611 2564665
0.14532855 -0.0022895325 -1.2684896 2433592
0.14512713 0.0022863571 -1.2667315 2367282
0.14546645 0.0057270299 -1.2696933 2433073
0.14770846 0.017175414 -1.2692739 2301489
0.1612577 0.040028535 -1.2677716 2367798
0.16383472 -0.040099431 -1.270017 4209479
0.15738091 -0.033314228 -1.2734184 3946827
0.15259659 -0.026388904 -1.2718412 3157316
0.15013024 -0.021774629 -1.2703885 3024954
0.14835376 -0.017250448 -1.2748189 4144201
0.1457832 -0.0068882983 -1.2724581 3157052
0.1456936 0.0080303624 -1.2716759 2696761
0.14592147 0.010340899 -1.2736648 2763068
0.15027222 0.024089456 -1.2715899 2959673
0.15274015 0.028710576 -1.2730377 3289152
0.15941736 0.03784731 -1.2713363 3486012
0.16426127 0.042501193 -1.2733235 4537409
