# .PCD v0.7 - Point Cloud Data file format
VERSION 0.7
FIELDS x y z rgb
SIZE 4 4 4 4
TYPE F F F U
COUNT 1 1 1 1
WIDTH 1111
HEIGHT 1
VIEWPOINT 0 0 0 1 0 0 0
POINTS 1111
DATA ascii
0.51293981 -0.11327537 -1.2515007 12171703
0.50702113 -0.11405178 -1.2517571 11053223
0.49211523 -0.1139992 -1.2511799 12829634
0.48760039 -0.1139992 -1.2511799 15066594
0.48308522 -0.11287042 -1.2511791 13684168
0.4774417 -0.1128704 -1.2511791 12105650
0.47179821 -0.11287041 -1.2511791 10592669
0.46728337 -0.11287041 -1.2511791 10197913
0.46276855 -0.11287041 -1.2511791 10263705
0.45825377 -0.11287042 -1.2511791 10263962
0.45261025 -0.1128704 -1.2511791 10132892
0.44696671 -0.11287041 -1.2511791 8949904
0.44245157 -0.11174162 -1.2511781 9477277
0.43906546 -0.11174162 -1.2511781 6319214
0.57225078 -0.10722651 -1.2511746 8423042
0.56717187 -0.10779089 -1.2511749 9607319
0.56209296 -0.10835528 -1.2511755 10133405
0.55757809 -0.10835528 -1.2511755 10132634
0.55306333 -0.10835529 -1.2511755 10132376
0.54741985 -0.10835529 -1.2511755 10066584
0.5417763 -0.10835528 -1.2511754 10000791
0.53726155 -0.10835528 -1.2511755 10263706
0.53269309 -0.10766727 -1.2519349 9670537
0.52823228 -0.10948406 -1.2511764 12959667
0.52306277 -0.10958377 -1.2523159 9472897
0.47518328 -0.10948406 -1.2511764 13680551
0.47179717 -0.10948406 -1.2511764 12959667
0.46728206 -0.10835528 -1.2511754 11249051
0.46276724 -0.10835529 -1.2511754 10263706
0.45825243 -0.10835528 -1.2511754 10000791
0.45260894 -0.10835528 -1.2511755 10066584
0.44696546 -0.10835528 -1.2511755 10132377
0.44245064 -0.10835528 -1.2511755 10132634
0.43793583 -0.10835529 -1.2511755 10133405
0.43285653 -0.1077909 -1.2511752 9344663
0.42777723 -0.10722651 -1.2511747 6385008
0.42149365 -0.10509094 -1.2526268 6451316
0.59030747 -0.10045387 -1.2511692 8489091
0.58692133 -0.10045387 -1.2511692 9936800
0.58240706 -0.10158264 -1.2511702 9935511
0.57789266 -0.10271142 -1.251171 9671568
0.57337785 -0.10271141 -1.251171 10066842
0.56773436 -0.10271141 -1.251171 10197913
0.56209087 -0.10271141 -1.251171 10329242
0.55757612 -0.10271141 -1.2511711 10329498
0.55306131 -0.10271141 -1.2511711 10132376
0.54741782 -0.10271141 -1.251171 10197913
0.54177439 -0.10271142 -1.251171 11052705
0.53784966 -0.10323177 -1.2520195 9144450
0.4623898 -0.10421643 -1.2511722 10985108
0.45825079 -0.10271141 -1.251171 11052705
0.4526073 -0.10271141 -1.251171 10197913
0.44696379 -0.10271141 -1.251171 10132376
0.442449 -0.10271141 -1.2511711 10263706
0.43793428 -0.10271141 -1.251171 10329242
0.43229076 -0.10271141 -1.251171 10197913
0.42664728 -0.10271142 -1.251171 10066842
0.4223581 -0.1022599 -1.2511706 10132892
0.41761738 -0.10158264 -1.2511702 9409683
0.41310233 -0.10045387 -1.2511692 9805472
0.40971625 -0.10045387 -1.2511692 6780280
0.60159272 -0.095938817 -1.2511656 8620164
0.59820664 -0.095938817 -1.2511656 10002334
0.59256357 -0.097067572 -1.2511665 10198426
0.58692014 -0.09706758 -1.2511665 10592413
0.58240533 -0.09706758 -1.2511666 10460827
0.57789057 -0.09706758 -1.2511666 10395290
0.57337582 -0.09706758 -1.2511666 10329498
0.56773233 -0.097067572 -1.2511665 10395291
0.56208885 -0.09706758 -1.2511666 10592412
0.55757409 -0.09706758 -1.2511665 10460827
0.55305934 -0.09706758 -1.2511665 10526619
0.54741585 -0.097067572 -1.2511665 10921120
0.54276544 -0.097554304 -1.2525909 7302247
0.45712075 -0.098196335 -1.2511673 12038567
0.45260569 -0.097067572 -1.2511665 10921120
0.44696221 -0.09706758 -1.2511666 10526619
0.44244742 -0.09706758 -1.2511665 10460827
0.43793267 -0.09706758 -1.2511665 10592412
0.43228915 -0.097067572 -1.2511663 10395291
0.42664573 -0.09706758 -1.2511665 10329498
0.42213097 -0.09706758 -1.2511665 10395290
0.41761619 -0.09706758 -1.2511665 10460827
0.4131014 -0.09706758 -1.2511665 10592413
0.40745798 -0.097067572 -1.2511665 10067355
0.40181422 -0.095938817 -1.2511656 9936799
0.39842814 -0.095938817 -1.2511656 6911609
0.61174917 -0.091423787 -1.2511621 9147281
0.60723484 -0.092552543 -1.251163 9343631
0.60272014 -0.092552543 -1.251163 10198428
0.59820533 -0.092552543 -1.251163 10395036
0.5925619 -0.092552543 -1.251163 10197913
0.58691841 -0.092552543 -1.251163 10460827
0.58240366 -0.092552543 -1.2511629 10460827
0.57788891 -0.092552543 -1.2511629 10263706
0.57337415 -0.092552543 -1.251163 10263705
0.56773072 -0.092552543 -1.251163 10329498
0.5620873 -0.092552543 -1.251163 10395034
0.55757254 -0.092552543 -1.251163 10395291
0.55305773 -0.092552535 -1.2511629 10526877
0.54824173 -0.092841968 -1.2520239 8092279
0.45109954 -0.09292879 -1.2511632 10460569
0.44696093 -0.092552535 -1.2511629 10526877
0.44244617 -0.092552543 -1.251163 10395290
0.43793145 -0.092552543 -1.251163 10395034
0.43228796 -0.092552543 -1.251163 10329242
0.4266445 -0.092552543 -1.251163 10263705
0.42212978 -0.092552543 -1.251163 10263706
0.417615 -0.092552535 -1.2511629 10460827
0.41310021 -0.092552543 -1.2511629 10395291
0.40745679 -0.092552535 -1.2511629 10197913
0.40181333 -0.092552528 -1.2511628 10395292
0.39729857 -0.092552535 -1.2511628 10132891
0.39289457 -0.09257903 -1.2515167 9015698
0.38826877 -0.09142378 -1.2511619 8293261
0.6230343 -0.086908787 -1.2511585 9147280
0.61739129 -0.088037528 -1.2511593 9672855
0.61174786 -0.088037536 -1.2511594 10329755
0.60723317 -0.088037536 -1.2511593 10263705
0.60271841 -0.088037536 -1.2511594 10198169
0.59820366 -0.088037536 -1.2511594 10329498
0.59256023 -0.088037528 -1.2511593 10263705
0.5869168 -0.088037536 -1.2511593 10395290
0.58240205 -0.088037536 -1.2511594 10460827
0.57788724 -0.088037536 -1.2511593 10329498
0.57337248 -0.088037528 -1.2511593 10460827
0.56772906 -0.088037521 -1.2511593 10395034
0.56208563 -0.088037521 -1.2511592 10329498
0.55757087 -0.088037521 -1.2511593 10526877
0.55276084 -0.088324301 -1.2520268 8092536
0.44658351 -0.088413775 -1.2511595 10460827
0.44244489 -0.088037521 -1.2511592 10526877
0.43793014 -0.088037521 -1.2511592 10329498
0.43228671 -0.088037528 -1.2511592 10395034
0.42664325 -0.088037521 -1.2511592 10461083
0.42212853 -0.088037521 -1.2511592 10329498
0.4176138 -0.088037521 -1.2511593 10460827
0.41309905 -0.088037521 -1.2511593 10395290
0.40745565 -0.088037528 -1.2511593 10263705
0.40181223 -0.088037536 -1.2511593 10329498
0.39729747 -0.088037536 -1.2511594 10263706
0.39278269 -0.088037536 -1.2511593 10263705
0.38826793 -0.088037521 -1.2511592 10329755
0.38262451 -0.088037528 -1.2511593 9410198
0.37698078 -0.086908773 -1.2511584 8358797
0.63619977 -0.080888815 -1.2511536 9016468
0.631836 -0.081942305 -1.2511545 9607319
0.6275472 -0.08239381 -1.2511549 9936026
0.62303245 -0.082393803 -1.2511549 10066584
0.61738902 -0.082393803 -1.2511548 10066583
0.61174566 -0.082393803 -1.2511549 10066583
0.60723096 -0.08239381 -1.2511549 10132376
0.60271621 -0.08239381 -1.2511548 10066584
0.59820151 -0.082393818 -1.2511549 10263705
0.59255803 -0.08239381 -1.2511549 10197912
0.5869146 -0.082393803 -1.2511549 10395290
0.5823999 -0.082393803 -1.2511549 10526876
0.57788521 -0.08239381 -1.2511549 10461083
0.57337046 -0.082393803 -1.2511549 10329498
0.56772703 -0.082393803 -1.2511548 10132376
0.56208366 -0.082393803 -1.2511548 10263706
0.55760598 -0.082793064 -1.2523272 7302764
0.44187909 -0.082958169 -1.2511553 10328983
0.43792859 -0.082393803 -1.2511548 10263706
0.43228516 -0.082393795 -1.2511548 10132376
0.42664173 -0.082393803 -1.2511549 10395034
0.42212704 -0.082393803 -1.2511548 10460827
0.41761228 -0.082393803 -1.2511548 10526876
0.41309753 -0.082393803 -1.2511548 10395290
0.40745416 -0.082393795 -1.2511548 10197912
0.40181074 -0.082393803 -1.2511548 10263705
0.39729604 -0.082393803 -1.2511548 10132120
0.39278126 -0.08239381 -1.2511548 10132376
0.38826656 -0.082393803 -1.2511549 10066584
0.38262317 -0.082393803 -1.2511548 10066583
0.37697971 -0.082393803 -1.2511548 10001048
0.37246501 -0.082393803 -1.2511548 9936027
0.36822397 -0.081953332 -1.2513175 9213333
0.36293983 -0.080716051 -1.2513933 7898761
0.64221728 -0.075621381 -1.2511494 9148572
0.63770306 -0.076750107 -1.2511503 9870491
0.63205963 -0.076750115 -1.2511504 10000791
0.62754494 -0.076750122 -1.2511504 9869206
0.62303019 -0.076750115 -1.2511503 9934998
0.61738688 -0.076750122 -1.2511503 10132120
0.61174345 -0.076750115 -1.2511504 10197913
0.60722876 -0.076750115 -1.2511504 10066583
0.602714 -0.076750122 -1.2511504 10066327
0.59819937 -0.076750122 -1.2511504 10132120
0.59255588 -0.076750122 -1.2511505 10066583
0.58691251 -0.076750115 -1.2511504 10197912
0.58239782 -0.076750115 -1.2511504 10526619
0.57788312 -0.076750115 -1.2511503 10329242
0.57336843 -0.076750115 -1.2511504 10197912
0.567725 -0.076750107 -1.2511503 10263705
0.56208158 -0.076750115 -1.2511504 10198170
0.55910718 -0.076806068 -1.2520721 5526611
0.43792698 -0.076750115 -1.2511504 10198170
0.43228364 -0.076750107 -1.2511503 10263705
0.42664021 -0.076750115 -1.2511504 10197912
0.42212552 -0.076750115 -1.2511504 10329242
0.41761079 -0.076750115 -1.2511503 10526619
0.41309607 -0.076750115 -1.2511504 10197912
0.40745273 -0.076750122 -1.2511503 10066583
0.40180928 -0.076750115 -1.2511504 10132120
0.39729461 -0.076750115 -1.2511503 10066327
0.39277989 -0.076750115 -1.2511503 10066583
0.38826519 -0.076750115 -1.2511504 10132376
0.38262177 -0.076750107 -1.2511503 10132120
0.3769784 -0.076750115 -1.2511504 9934998
0.37246367 -0.076750115 -1.2511504 9869206
0.36794898 -0.076750115 -1.2511503 10066327
0.36230552 -0.076750107 -1.2511503 9870491
0.35722616 -0.076414295 -1.251809 7241089
0.64673018 -0.071106479 -1.251146 8820380
0.64334458 -0.072235197 -1.2511468 9804699
0.63770121 -0.072235197 -1.2511468 10066327
0.63205779 -0.072235197 -1.2511468 9934998
0.62754309 -0.072235197 -1.2511468 9934998
0.62302846 -0.072235197 -1.2511468 10000791
0.61738503 -0.072235197 -1.2511468 10263706
0.61174166 -0.072235197 -1.2511468 10263704
0.60722703 -0.072235204 -1.2511468 10066583
0.60271233 -0.072235204 -1.2511468 10000791
0.59819758 -0.072235197 -1.2511468 10066584
0.59255421 -0.072235197 -1.2511468 10066583
0.58691084 -0.072235197 -1.2511468 10132120
0.58239615 -0.072235197 -1.2511468 10395290
0.57788146 -0.072235197 -1.2511468 10460827
0.57336676 -0.072235197 -1.2511468 10132376
0.56772339 -0.072235197 -1.2511468 10198169
0.56208003 -0.072235197 -1.2511468 8948104
0.55998641 -0.073533587 -1.2540411 2631720
0.43792576 -0.072235189 -1.2511467 9473674
0.43228236 -0.072235189 -1.2511467 10198169
0.42663899 -0.072235197 -1.2511468 10132120
0.4221243 -0.072235197 -1.2511468 10460827
0.4176096 -0.072235197 -1.2511468 10395290
0.41309491 -0.072235197 -1.2511468 10132120
0.40745154 -0.072235189 -1.2511467 10066327
0.40180814 -0.072235197 -1.2511468 10066584
0.39729348 -0.072235197 -1.2511468 10000791
0.39277875 -0.072235197 -1.2511468 10066583
0.38826406 -0.072235197 -1.2511468 10263705
0.38262069 -0.072235189 -1.2511467 10263706
0.37697729 -0.072235197 -1.2511468 10000791
0.37246263 -0.072235197 -1.2511468 9934998
0.36794791 -0.072235197 -1.2511468 9934998
0.36230454 -0.072235197 -1.2511468 10066583
0.35666114 -0.072235197 -1.2511468 9738907
0.35271537 -0.07189849 -1.2518314 6977919
0.65124297 -0.066591583 -1.2511423 7768723
0.64785743 -0.067720309 -1.2511432 9410714
0.64334279 -0.067720309 -1.2511432 10132377
0.63769943 -0.067720301 -1.2511432 9934998
0.63205606 -0.067720301 -1.2511432 9934998
0.62754136 -0.067720301 -1.2511432 11053221
0.62302667 -0.067720309 -1.2511432 12434875
0.6173833 -0.067720301 -1.2511433 12171445
0.61173993 -0.067720301 -1.2511432 11381927
0.60722524 -0.067720301 -1.2511432 10329498
0.6027106 -0.067720301 -1.2511432 10066583
0.59819591 -0.067720301 -1.2511432 10132120
0.59255254 -0.067720301 -1.2511431 10066584
0.58690917 -0.067720301 -1.2511432 10066584
0.58239448 -0.067720301 -1.2511432 10263705
0.57787979 -0.067720301 -1.2511431 10395290
0.57336509 -0.067720301 -1.2511432 10197913
0.56772172 -0.067720301 -1.2511433 10263962
0.56236899 -0.067755096 -1.2517915 7039850
0.43679583 -0.067720301 -1.2511432 9803156
0.43228114 -0.067720301 -1.2511431 10329498
0.42663777 -0.067720301 -1.2511431 10197913
0.4221231 -0.067720301 -1.2511432 10395290
0.41760841 -0.067720301 -1.2511432 10263705
0.41309372 -0.067720301 -1.2511432 10132119
0.40745035 -0.067720301 -1.2511431 10066583
0.40180698 -0.067720301 -1.2511431 10132120
0.39729232 -0.067720301 -1.2511432 10066583
0.39277765 -0.067720301 -1.2511431 10329498
0.38826293 -0.067720294 -1.2511431 11184805
0.38261959 -0.067720301 -1.2511433 11974066
0.37697622 -0.067720309 -1.2511432 12237239
0.3724615 -0.067720301 -1.2511432 10987171
0.36794683 -0.067720294 -1.2511431 9934998
0.3623035 -0.067720301 -1.2511431 9934998
0.35666016 -0.067720301 -1.2511432 10197913
0.35214543 -0.067720294 -1.251143 9345178
0.3489067 -0.067749374 -1.2516714 6715520
0.65199387 -0.062829196 -1.2511393 8292489
0.64785552 -0.063205428 -1.2511395 9935256
0.64334095 -0.063205436 -1.2511396 10066327
0.63769758 -0.063205436 -1.2511396 10066327
0.63205421 -0.063205436 -1.2511396 9934483
0.62765706 -0.063838817 -1.2525022 6710366
0.61173862 -0.064334147 -1.2511405 9934477
0.60722351 -0.063205436 -1.2511396 9803924
0.60270882 -0.063205436 -1.2511396 10000791
0.59819412 -0.063205428 -1.2511395 10132120
0.59255081 -0.063205428 -1.2511395 10066583
0.58690745 -0.063205428 -1.2511395 10263705
0.58239281 -0.063205436 -1.2511396 10263705
0.57787812 -0.063205436 -1.2511396 10395291
0.57336348 -0.063205436 -1.2511396 10263705
0.56772012 -0.063205428 -1.2511395 10329242
0.56294173 -0.063637711 -1.2522297 5461075
0.43679452 -0.063205428 -1.2511394 9012091
0.43227986 -0.063205428 -1.2511395 10329242
0.42663655 -0.063205436 -1.2511396 10263705
0.42212188 -0.063205436 -1.2511396 10395291
0.41760722 -0.063205436 -1.2511396 10263705
0.41309255 -0.063205436 -1.2511396 10263705
0.40744922 -0.063205428 -1.2511395 10066583
0.40180585 -0.063205436 -1.2511396 10132120
0.39729118 -0.063205436 -1.2511396 10000791
0.39228481 -0.063009277 -1.2517357 8751495
0.38744271 -0.064385839 -1.2521458 9803149
0.37246072 -0.064334147 -1.2511405 9867912
0.36794579 -0.063205436 -1.2511396 10395033
0.36230242 -0.063205428 -1.2511396 10066327
0.35665911 -0.063205428 -1.2511395 10066327
0.35214442 -0.063205428 -1.2511395 9935256
0.34774131 -0.063226148 -1.2515424 7043969
0.65236789 -0.057561889 -1.251135 9082264
0.64785326 -0.057561886 -1.251135 10000791
0.64333856 -0.057561886 -1.251135 9934998
0.63769519 -0.057561882 -1.2511349 9737362
0.633641 -0.058218908 -1.2531618 3487028
0.60609353 -0.0598193 -1.2511369 7698549
0.60270667 -0.057561886 -1.2511351 8818318
0.59819204 -0.057561886 -1.2511352 10066328
0.59254873 -0.057561889 -1.2511351 10132120
0.58690536 -0.057561886 -1.251135 10395291
0.58239067 -0.057561886 -1.251135 10197913
0.57787603 -0.057561886 -1.251135 10329498
0.5733614 -0.057561886 -1.251135 10460827
0.56771809 -0.057561889 -1.2511351 10197912
0.56425208 -0.057667483 -1.2534646 3947579
0.43227836 -0.057561889 -1.251135 10329240
0.42663503 -0.057561886 -1.2511351 10460827
0.42212033 -0.057561886 -1.251135 10329498
0.41760567 -0.057561886 -1.251135 10197913
0.41309103 -0.057561886 -1.251135 10395291
0.4074477 -0.057561882 -1.251135 10132120
0.40180442 -0.057561889 -1.2511351 10066328
0.39728972 -0.057561886 -1.251135 8489097
0.39377841 -0.059160471 -1.2531326 4607312
0.36681631 -0.059819296 -1.2511368 9605518
0.36230117 -0.057561889 -1.251135 10066069
0.35665786 -0.057561886 -1.2511352 9934998
0.35214317 -0.057561886 -1.251135 10000791
0.34727541 -0.057583727 -1.2516098 8226699
0.34452462 -0.055349875 -1.2521603 4279376
0.65575159 -0.05191838 -1.2511306 7569023
0.65236557 -0.051918376 -1.2511306 9673114
0.64785087 -0.051918376 -1.2511306 10000790
0.6433363 -0.051918376 -1.2511306 10132120
0.63784945 -0.051930983 -1.2514387 8092537
0.60157585 -0.051918376 -1.2511306 8096141
0.59818983 -0.051918373 -1.2511306 10132633
0.59254652 -0.051918376 -1.2511305 10132120
0.58690327 -0.051918376 -1.2511306 10329498
0.58238864 -0.051918376 -1.2511306 10263705
0.577874 -0.05191838 -1.2511306 10395291
0.57335937 -0.05191838 -1.2511306 10592412
0.56782645 -0.051928315 -1.2513748 8947846
0.43182537 -0.052144118 -1.2511308 10131346
0.42663348 -0.051918376 -1.2511306 10592412
0.42211884 -0.051918376 -1.2511306 10395291
0.41760421 -0.051918376 -1.2511306 10263705
0.41308957 -0.051918376 -1.2511306 10329498
0.40744627 -0.051918373 -1.2511307 10132120
0.40180296 -0.051918376 -1.2511306 10132633
0.39749917 -0.051945582 -1.2517964 5792872
0.36117122 -0.051918376 -1.2511306 10066583
0.35665655 -0.051918376 -1.2511306 10132120
0.35214192 -0.051918376 -1.2511306 10000790
0.34762728 -0.05191838 -1.2511306 9673114
0.34424132 -0.05191838 -1.2511306 6979206
0.65574962 -0.047403596 -1.251127 7635849
0.65236366 -0.047403596 -1.251127 9738906
0.64784908 -0.047403596 -1.251127 10000790
0.64333439 -0.047403596 -1.251127 10197912
0.63795644 -0.047423571 -1.2516494 7895158
0.60157412 -0.0474036 -1.251127 8096398
0.5981881 -0.0474036 -1.2511269 10066841
0.59254485 -0.0474036 -1.2511269 10066584
0.58690155 -0.0474036 -1.251127 10263705
0.58238697 -0.047403596 -1.251127 10263705
0.57787234 -0.047403596 -1.251127 10329498
0.57335764 -0.047403596 -1.251127 10592412
0.56794322 -0.04742299 -1.2516332 8355966
0.43114686 -0.0474036 -1.251127 10329499
0.42663223 -0.0474036 -1.2511269 10526620
0.42211762 -0.0474036 -1.2511269 10329498
0.41760299 -0.0474036 -1.2511269 10263705
0.41308838 -0.0474036 -1.2511269 10263705
0.40744507 -0.0474036 -1.2511269 10066584
0.40180179 -0.0474036 -1.2511269 10066841
0.39772066 -0.047455911 -1.2524959 5266269
0.36117014 -0.0474036 -1.251127 10000534
0.35665557 -0.0474036 -1.251127 10197913
0.3521409 -0.0474036 -1.251127 10000790
0.3476263 -0.0474036 -1.251127 9804442
0.34377789 -0.047820982 -1.2521881 5596009
0.65574825 -0.044017531 -1.2511243 7437438
0.65236181 -0.042888843 -1.2511234 9410457
0.64784718 -0.042888846 -1.2511234 9934999
0.64333254 -0.042888846 -1.2511233 10000534
0.63768923 -0.04288885 -1.2511233 9474189
0.63473934 -0.041863386 -1.254215 3092270
0.60270101 -0.042888843 -1.2511234 8159615
0.59818643 -0.042888846 -1.2511234 10132376
0.59254318 -0.04288885 -1.2511233 10066584
0.58689988 -0.042888846 -1.2511234 10395290
0.58238524 -0.042888843 -1.2511234 10263705
0.57787061 -0.042888846 -1.2511234 10460827
0.57335603 -0.042888843 -1.2511234 10526875
0.56771272 -0.04288885 -1.2511233 9868691
0.56464833 -0.041867722 -1.2543449 3421236
0.43227431 -0.042888846 -1.2511234 10131603
0.42663103 -0.042888846 -1.2511234 10526875
0.4221164 -0.042888846 -1.2511234 10461083
0.41760182 -0.042888846 -1.2511234 10263705
0.41308719 -0.042888843 -1.2511234 10395290
0.40744391 -0.042888846 -1.2511234 10066584
0.40180063 -0.042888846 -1.2511234 10132377
0.39728603 -0.042888843 -1.2511234 7372160
0.36229777 -0.04288885 -1.2511233 9670794
0.35665452 -0.042888846 -1.2511234 10000790
0.35213992 -0.042888846 -1.2511234 9934999
0.34762526 -0.042888846 -1.2511234 9410457
0.34446585 -0.042916328 -1.2519467 4937822
0.65235996 -0.038374122 -1.2511197 8753298
0.64784533 -0.038374122 -1.2511199 10000791
0.64333069 -0.038374119 -1.2511196 10000791
0.6376875 -0.038374119 -1.2511197 10197913
0.63252056 -0.038003985 -1.251318 8092280
0.60608482 -0.037245445 -1.2511189 8621455
0.60269928 -0.038374122 -1.2511197 9607062
0.5981847 -0.038374122 -1.2511197 10000791
0.59254146 -0.038374122 -1.2511197 10132376
0.58689821 -0.038374122 -1.2511197 10329755
0.58238363 -0.038374122 -1.2511199 10197913
0.577869 -0.038374122 -1.2511199 10263706
0.57335442 -0.038374122 -1.2511197 10329498
0.56771117 -0.038374122 -1.2511197 10395291
0.56372356 -0.038410649 -1.2522907 5263439
0.43227306 -0.038374126 -1.2511197 10395291
0.42662981 -0.038374122 -1.2511199 10329498
0.42211521 -0.038374122 -1.2511199 10263705
0.4176006 -0.038374122 -1.2511199 10197913
0.413086 -0.038374122 -1.2511199 10329755
0.40744272 -0.038374126 -1.2511197 10132376
0.4017995 -0.038374122 -1.2511199 10000791
0.3972849 -0.038374119 -1.2511199 9541270
0.39339244 -0.038021926 -1.2519032 6450029
0.38975993 -0.03502192 -1.2523266 7961206
0.36681107 -0.037245445 -1.2511189 10000276
0.36229673 -0.038374126 -1.2511197 10197913
0.35665348 -0.038374122 -1.2511199 10000791
0.35213888 -0.038374122 -1.2511199 10000791
0.34715563 -0.038623787 -1.2518775 7240059
0.65122896 -0.032730754 -1.2511153 8096656
0.647843 -0.032730751 -1.2511153 9738649
0.64332837 -0.032730754 -1.2511153 10132120
0.63768518 -0.032730747 -1.2511153 10000791
0.63204187 -0.032730747 -1.2511152 10197912
0.62778282 -0.032280944 -1.2511744 11315619
0.62309068 -0.031606205 -1.251272 11776945
0.61680448 -0.031037744 -1.2511139 12368824
0.61172581 -0.031602077 -1.2511144 12105649
0.60721177 -0.032730754 -1.2511153 10330012
0.60269713 -0.032730754 -1.2511153 10066327
0.5981825 -0.032730751 -1.2511152 10132120
0.59253931 -0.032730751 -1.2511153 10066584
0.58689606 -0.032730751 -1.2511152 10197912
0.58238155 -0.032730751 -1.2511153 10263705
0.57786691 -0.032730754 -1.2511153 10395035
0.57335234 -0.032730751 -1.2511153 10197913
0.56770909 -0.032730754 -1.2511152 10263706
0.56268406 -0.032301649 -1.2519907 7237229
0.43678614 -0.032730754 -1.2511153 9341573
0.43227151 -0.032730751 -1.2511153 10263706
0.42662826 -0.032730751 -1.2511153 10198169
0.42211366 -0.032730754 -1.2511153 10395035
0.41759908 -0.032730754 -1.2511153 10263705
0.41308451 -0.032730751 -1.2511153 10197912
0.40744132 -0.032730754 -1.2511153 10066584
0.40179804 -0.032730751 -1.2511153 10132120
0.39728346 -0.032730751 -1.2511153 10066327
0.39276889 -0.032730754 -1.2511153 10330012
0.38825399 -0.031602081 -1.2511144 12237234
0.38317496 -0.031037748 -1.2511139 11908530
0.37659124 -0.03122586 -1.251114 12828860
0.37245297 -0.031602081 -1.2511144 11973806
0.36793864 -0.032730754 -1.2511153 10197912
0.36229545 -0.032730754 -1.2511153 10000790
0.35665217 -0.032730751 -1.2511152 10132120
0.3521376 -0.032730754 -1.2511153 9738649
0.34797987 -0.033194639 -1.2515888 6583418
0.64746463 -0.027463643 -1.2511111 8555404
0.6433261 -0.02708742 -1.2511108 10132635
0.63768286 -0.027087422 -1.2511109 10000791
0.63203967 -0.027087422 -1.2511108 9934742
0.62752509 -0.02708742 -1.2511108 9934998
0.62301052 -0.027087418 -1.2511107 10066584
0.61736733 -0.02708742 -1.2511107 10329242
0.61172414 -0.02708742 -1.2511108 10198168
0.60720956 -0.02708742 -1.2511108 10066583
0.60269499 -0.02708742 -1.2511108 10000790
0.59818041 -0.027087422 -1.2511108 10066584
0.59253716 -0.02708742 -1.2511109 10066583
0.58689398 -0.02708742 -1.2511108 10132120
0.58237934 -0.02708742 -1.2511108 10329498
0.57786477 -0.02708742 -1.2511108 10460827
0.57335019 -0.027087418 -1.2511107 10197912
0.567707 -0.027087418 -1.2511107 10263705
0.56207955 -0.02708821 -1.2511458 8487553
0.43753687 -0.026711201 -1.2511106 9736848
0.43226996 -0.027087422 -1.2511109 10263705
0.42662677 -0.027087422 -1.2511108 10197912
0.42211217 -0.02708742 -1.2511108 10460827
0.41759762 -0.02708742 -1.2511108 10329498
0.41308302 -0.027087422 -1.2511109 10132120
0.40743983 -0.02708742 -1.2511108 10066583
0.40179661 -0.027087422 -1.2511108 10066584
0.39728203 -0.027087422 -1.2511108 10000790
0.39276749 -0.02708742 -1.2511108 10066583
0.38825285 -0.02708742 -1.2511108 10263705
0.3826097 -0.027087418 -1.2511108 10329498
0.37696648 -0.027087422 -1.2511108 10132376
0.37245193 -0.027087422 -1.2511108 9934998
0.3679373 -0.02708742 -1.2511108 9934998
0.36229411 -0.02708742 -1.2511107 10000791
0.35665092 -0.02708742 -1.2511108 10198427
0.35236338 -0.02710421 -1.25192 7372419
0.34964892 -0.028288757 -1.2543341 3620931
0.64294821 -0.022949005 -1.2511076 8752782
0.63768107 -0.022572787 -1.2511072 10067098
0.63203788 -0.022572784 -1.2511072 10000535
0.6275233 -0.022572786 -1.2511072 9869462
0.62300873 -0.022572786 -1.2511072 9934998
0.61736554 -0.022572786 -1.2511072 10197912
0.61172241 -0.022572787 -1.2511072 10263705
0.60720783 -0.022572787 -1.2511072 10132120
0.60269326 -0.022572786 -1.2511072 10000791
0.59817868 -0.022572786 -1.2511072 10066584
0.5925355 -0.022572786 -1.2511072 10132120
0.58689231 -0.022572786 -1.2511072 10132376
0.58237767 -0.022572786 -1.2511072 10526620
0.57786316 -0.022572786 -1.2511072 10329498
0.57334858 -0.022572784 -1.2511072 10132120
0.56770545 -0.022572784 -1.2511071 10198169
0.5620622 -0.022572786 -1.2511072 10066584
0.55949819 -0.022606609 -1.2529477 5132109
0.43791193 -0.022572786 -1.2511072 10066584
0.43226874 -0.022572786 -1.2511072 10198169
0.42662549 -0.022572786 -1.2511072 10132120
0.422111 -0.022572787 -1.2511072 10329498
0.4175964 -0.022572787 -1.2511072 10526620
0.41308182 -0.022572786 -1.2511072 10132376
0.40743864 -0.022572786 -1.2511072 10132120
0.40179548 -0.022572787 -1.2511072 10066584
0.39728087 -0.022572786 -1.2511072 10000791
0.39276633 -0.022572786 -1.2511072 10132120
0.38825178 -0.022572786 -1.2511072 10263705
0.38260856 -0.022572786 -1.2511072 10197912
0.37696537 -0.022572784 -1.2511072 9934998
0.37245083 -0.022572784 -1.2511072 9869206
0.36793628 -0.022572787 -1.2511072 10000535
0.36229309 -0.022572786 -1.2511072 10067098
0.35688186 -0.022586778 -1.2519236 7569540
0.35418224 -0.023763034 -1.2543594 3752516
0.63722789 -0.018283907 -1.2511038 9015697
0.63203603 -0.018058177 -1.2511036 10132635
0.62752151 -0.018058177 -1.2511036 10000791
0.623007 -0.018058177 -1.2511036 9934998
0.61736381 -0.018058177 -1.2511035 10066327
0.61172056 -0.018058177 -1.2511035 10066327
0.60720605 -0.018058177 -1.2511036 10000791
0.60269153 -0.018058177 -1.2511036 10066583
0.59817696 -0.018058177 -1.2511036 10197913
0.59253377 -0.018058177 -1.2511038 10132120
0.58689064 -0.018058177 -1.2511036 10395291
0.582376 -0.018058177 -1.2511036 10592412
0.57786149 -0.018058177 -1.2511035 10395291
0.57334697 -0.018058177 -1.2511035 10329497
0.56770378 -0.018058175 -1.2511035 10263705
0.56206059 -0.018058177 -1.2511035 10263706
0.5584476 -0.017697947 -1.2522849 7500401
0.44129658 -0.018058177 -1.2511036 9274491
0.43791065 -0.018058177 -1.2511036 10263706
0.43226752 -0.018058177 -1.2511035 10263705
0.4266243 -0.018058177 -1.2511036 10329498
0.42210972 -0.018058177 -1.2511036 10395291
0.41759521 -0.018058177 -1.2511035 10526876
0.41308069 -0.018058177 -1.2511036 10395290
0.40743747 -0.018058177 -1.2511035 10066584
0.40179428 -0.018058177 -1.2511036 10197913
0.39727974 -0.018058177 -1.2511036 10066327
0.39276522 -0.018058177 -1.2511036 10000791
0.38825068 -0.018058177 -1.2511036 10066328
0.38260746 -0.018058175 -1.2511035 10066327
0.3769643 -0.018058177 -1.2511036 9934998
0.37244976 -0.018058177 -1.2511036 10000791
0.36793524 -0.018058177 -1.2511036 10132634
0.36245003 -0.018065603 -1.2516526 8029833
0.35871574 -0.019237127 -1.2543845 3752517
0.63203466 -0.014672237 -1.2511009 8818314
0.62714368 -0.013919809 -1.2511004 9870749
0.62277919 -0.01286641 -1.2510995 9737875
0.61736155 -0.012414953 -1.2510991 10066842
0.61171836 -0.012414954 -1.2510992 10263705
0.6072039 -0.012414954 -1.2510991 10263705
0.60268939 -0.012414955 -1.2510991 10197913
0.59817487 -0.012414954 -1.2510991 10329498
0.59253168 -0.012414954 -1.2510991 10197913
0.58688849 -0.012414955 -1.2510991 10395034
0.58237392 -0.012414954 -1.2510991 10460827
0.57785946 -0.012414954 -1.2510991 10395291
0.57334489 -0.012414954 -1.2510991 10460827
0.56770176 -0.012414953 -1.2510991 10263705
0.56205857 -0.012414954 -1.2510991 10329498
0.55757165 -0.012415681 -1.2511611 10132119
0.55351895 -0.010912417 -1.2513553 8684416
0.44580886 -0.010157673 -1.2510973 10461083
0.44219777 -0.011963497 -1.2510988 10592414
0.4379091 -0.012414955 -1.2510991 10329498
0.43226591 -0.012414954 -1.2510991 10263449
0.42662275 -0.012414955 -1.2510991 10460827
0.42210826 -0.012414955 -1.2510991 10395291
0.41759372 -0.012414954 -1.2510991 10461083
0.41307917 -0.012414954 -1.2510991 10395034
0.40743601 -0.012414955 -1.2510992 10198169
0.40179279 -0.012414954 -1.2510991 10329498
0.39727834 -0.012414954 -1.2510991 10197912
0.39276376 -0.012414955 -1.2510991 10263705
0.38824928 -0.012414954 -1.2510991 10263705
0.38260612 -0.012414955 -1.2510991 10066841
0.37704346 -0.01241713 -1.2513671 8620168
0.37244871 -0.013543594 -1.2510999 9279126
0.36712697 -0.014685164 -1.2522032 6845558
0.6162312 -0.0079004019 -1.2510955 8752265
0.61134011 -0.007147979 -1.2510949 9475217
0.6072017 -0.0067717684 -1.2510947 9935771
0.60268718 -0.006771768 -1.2510947 10329499
0.59817266 -0.006771768 -1.2510947 10395035
0.59252954 -0.0067717689 -1.2510947 10198169
0.58688641 -0.006771768 -1.2510946 10460827
0.58237183 -0.006771768 -1.2510946 10460827
0.57785738 -0.006771768 -1.2510946 10263705
0.57334286 -0.006771768 -1.2510946 10263706
0.56769973 -0.006771768 -1.2510947 10329498
0.5620566 -0.006771768 -1.2510946 10329497
0.55754209 -0.0067717675 -1.2510947 10395290
0.55302751 -0.006771768 -1.2510946 10592413
0.54900748 -0.0063970149 -1.2513642 8487294
0.45032209 -0.0056431354 -1.2510937 10395034
0.44693652 -0.006771768 -1.2510946 10592413
0.442422 -0.006771768 -1.2510946 10395291
0.43790749 -0.006771768 -1.2510946 10329241
0.43226436 -0.006771768 -1.2510947 10329242
0.42662123 -0.0067717684 -1.2510946 10263706
0.42210668 -0.006771768 -1.2510946 10263705
0.4175922 -0.006771768 -1.2510946 10460827
0.41307768 -0.006771768 -1.2510946 10395291
0.40743455 -0.006771768 -1.2510947 10263705
0.40179139 -0.006771768 -1.2510946 10395034
0.39727688 -0.0067717675 -1.2510946 10329499
0.39276236 -0.0067717675 -1.2510946 9935770
0.38845521 -0.0067747901 -1.2517647 7897216
0.38373363 -0.0079004001 -1.2510955 8227725
0.60268593 -0.0033858768 -1.251092 9411228
0.598171 -0.0022572502 -1.251091 9869717
0.59252787 -0.0022572502 -1.251091 10395549
0.58688474 -0.0022572502 -1.251091 10526619
0.58237022 -0.0022572502 -1.251091 10460827
0.57785571 -0.00225725 -1.251091 10395034
0.57334119 -0.00225725 -1.251091 10329498
0.56769806 -0.0022572502 -1.251091 10395291
0.56205493 -0.00225725 -1.251091 10592412
0.55754048 -0.00225725 -1.251091 10460827
0.55302596 -0.0022572502 -1.251091 10526620
0.54741329 -0.0022574391 -1.2511609 10460312
0.54305387 -0.0011290103 -1.2515186 8552313
0.45212686 -0.0020315249 -1.2510908 10921120
0.44693524 -0.00225725 -1.251091 10526620
0.44242072 -0.00225725 -1.251091 10461083
0.43790624 -0.00225725 -1.251091 10592412
0.43226311 -0.00225725 -1.251091 10395291
0.42661998 -0.00225725 -1.251091 10329498
0.42210549 -0.00225725 -1.251091 10395034
0.41759098 -0.00225725 -1.251091 10460827
0.41307649 -0.00225725 -1.251091 10526619
0.40743336 -0.00225725 -1.251091 10461084
0.40179026 -0.00225725 -1.251091 9607319
0.39727604 -0.0033858763 -1.251092 8687247
0.39389014 -0.0033858761 -1.2510918 5661027
0.59139794 0.0011286223 -1.2510884 9212045
0.58688307 0.0022572421 -1.2510874 9804182
0.58236855 0.0022572421 -1.2510874 10461342
0.5778541 0.0022572421 -1.2510874 10329499
0.57333952 0.0022572419 -1.2510874 10132120
0.56769639 0.0022572421 -1.2510873 10263706
0.56205338 0.0022572421 -1.2510875 10460827
0.55753887 0.0022572419 -1.2510874 10395291
0.55302435 0.0022572419 -1.2510874 10263705
0.54738128 0.0022572421 -1.2510874 10395291
0.54178548 0.0022573406 -1.2511969 10920603
0.53854442 0.0033870724 -1.2515339 8881278
0.45784381 0.0026334485 -1.2510871 11578533
0.45257708 0.0022572421 -1.2510874 10395291
0.44693395 0.0022572419 -1.2510874 10263705
0.44241944 0.0022572419 -1.2510874 10395290
0.43790501 0.0022572419 -1.2510874 10460827
0.43226191 0.0022572419 -1.2510874 10263706
0.42661878 0.0022572419 -1.2510874 10132376
0.42210427 0.0022572421 -1.2510873 10329499
0.41758978 0.0022572419 -1.2510874 10461342
0.41307533 0.0022572421 -1.2510874 9541784
0.40760258 0.001129096 -1.2516135 7239544
0.58123863 0.0056430949 -1.2510847 8553081
0.57785285 0.0056430954 -1.2510848 9936542
0.57333791 0.0067717088 -1.2510839 9739163
0.56769478 0.0067717084 -1.2510839 10198170
0.56205171 0.0067717088 -1.2510839 10197913
0.55753726 0.0067717079 -1.2510839 10197913
0.5530228 0.0067717079 -1.2510839 10066583
0.54737967 0.0067717074 -1.2510837 10132120
0.5417366 0.0067717079 -1.2510839 10526877
0.53727114 0.0067722239 -1.2511981 10921117
0.53403485 0.0079032658 -1.2515492 10459793
0.46235701 0.0071479119 -1.2510835 11315876
0.45821884 0.0067717079 -1.2510839 10526877
0.45257577 0.0067717084 -1.2510839 10132120
0.44693267 0.0067717079 -1.2510839 10066583
0.44241819 0.0067717079 -1.2510839 10197913
0.43790373 0.0067717079 -1.2510839 10197913
0.43226063 0.0067717084 -1.2510839 10198170
0.42661753 0.0067717079 -1.2510839 9344148
0.42253271 0.0063964999 -1.2512418 7896960
0.4181166 0.0056502456 -1.25267 5529441
0.56769365 0.010157541 -1.2510811 9344146
0.5620501 0.011286149 -1.2510803 9738389
0.55753523 0.012414753 -1.2510794 9672597
0.55302078 0.012414753 -1.2510794 10132891
0.54737771 0.012414753 -1.2510794 10132377
0.5417347 0.012414753 -1.2510794 10066584
0.53722018 0.012414753 -1.2510794 10197913
0.53270572 0.012414753 -1.2510794 10921377
0.52827334 0.012416334 -1.251274 10920860
0.5225479 0.013543359 -1.2510786 12960441
0.51763874 0.013928137 -1.2519423 14342873
0.51239002 0.014671963 -1.2510777 12763840
0.48756048 0.014671963 -1.2510775 14407377
0.48304603 0.014671963 -1.2510775 15921905
0.47740328 0.013543357 -1.2510785 13025976
0.4715347 0.012866196 -1.251079 11512483
0.46724609 0.012414753 -1.2510793 10921377
0.46273169 0.012414753 -1.2510793 10197913
0.45821717 0.012414753 -1.2510792 10066584
0.45257413 0.012414753 -1.2510793 10132377
0.44693109 0.012414753 -1.2510792 10132635
0.44241655 0.012414753 -1.2510793 9081233
0.43736866 0.011515968 -1.2514931 8226181
0.43225968 0.01015754 -1.251081 8884627
0.55189061 0.016929163 -1.2510757 8552825
0.54681164 0.01749346 -1.2510753 9542813
0.54173267 0.01805776 -1.2510748 10199199
0.53721827 0.01805776 -1.2510749 10395549
0.53270382 0.01805776 -1.2510748 10263705
0.52818936 0.01805776 -1.2510748 10395291
0.52254635 0.01805776 -1.2510748 10263706
0.51690328 0.01805776 -1.2510748 10724258
0.51238889 0.01805776 -1.2510749 11908532
0.50787449 0.01805776 -1.2510749 12763839
0.50340068 0.018059131 -1.2511761 11711151
0.49715245 0.018622059 -1.2510744 11645101
0.49207389 0.01805776 -1.2510749 12763839
0.48755944 0.01805776 -1.2510748 11908532
0.48304498 0.01805776 -1.2510748 10724257
0.47740194 0.01805776 -1.2510748 10263706
0.47175887 0.018057758 -1.2510748 10395291
0.46724445 0.01805776 -1.2510748 10263705
0.46272999 0.01805776 -1.2510748 10461341
0.45821556 0.018057758 -1.2510748 10199199
0.45309359 0.017834991 -1.2512673 8029060
0.44758213 0.016953934 -1.2529063 5331805
0.54060292 0.021443546 -1.2510722 8553595
0.53721714 0.021443546 -1.2510722 9082003
0.53270268 0.021443546 -1.2510722 10396578
0.52818787 0.022572137 -1.2510713 10000787
0.5225448 0.022572137 -1.2510713 10395549
0.51690179 0.022572137 -1.2510712 10132377
0.51238739 0.022572137 -1.2510712 10066584
0.50787294 0.022572137 -1.2510713 10066584
0.5033586 0.022572137 -1.2510713 10197913
0.4977155 0.022572137 -1.2510713 10197913
0.49207246 0.022572137 -1.2510713 10066584
0.48755804 0.022572137 -1.2510713 10066584
0.48304361 0.022572137 -1.2510713 10132377
0.47740054 0.022572136 -1.2510711 10395549
0.47175753 0.022572136 -1.2510712 8817032
0.46724343 0.021443546 -1.2510722 10396577
0.46272901 0.021443546 -1.2510722 8293003
0.45934317 0.021443544 -1.251072 7174780
0.51690072 0.025957901 -1.2510686 9406846
0.51238632 0.025957901 -1.2510686 10527136
0.50787187 0.025957901 -1.2510686 10395550
0.50335705 0.027086485 -1.2510676 9934224
0.49771407 0.027086483 -1.2510678 9606547
0.49271631 0.026725674 -1.2517501 9474446
0.48755699 0.025957901 -1.2510686 9408655
0.48306006 0.025958844 -1.251114 7369586
0.52066565 -0.11003176 -1.2574354 2500390
0.51241994 -0.11223391 -1.2566903 4342594
0.50366092 -0.11457185 -1.257465 2829355
0.53439647 -0.1055178 -1.2577147 2500133
0.52891886 -0.10782711 -1.2581828 2631719
0.43414965 -0.10995438 -1.2565511 6188143
0.53780431 -0.10211477 -1.2577242 2434340
0.54234815 -0.097577304 -1.2577367 2368547
0.40466195 -0.098615125 -1.2565033 7043193
0.54689205 -0.093039736 -1.2577491 2302755
0.55257231 -0.087367706 -1.2577654 2368547
0.37572491 -0.087404311 -1.2582922 6845815
0.55758846 -0.081763566 -1.2588437 2368547
0.55902523 -0.077106349 -1.2569673 2368548
0.56057429 -0.071345836 -1.2553576 2368548
0.55990779 -0.07382153 -1.2589517 2302754
0.56145847 -0.068054989 -1.2573376 2302754
0.34758466 -0.066799678 -1.2550521 3686209
0.63187641 -0.060124699 -1.2575244 1250067
0.62735188 -0.063529357 -1.257551 1579032
0.56298232 -0.06238706 -1.2573658 2368547
0.38492087 -0.064721227 -1.2586682 2171425
0.34611011 -0.06127958 -1.2579228 3291450
0.63453048 -0.056755189 -1.2582883 1184273
0.56448686 -0.056788839 -1.2590325 2500133
0.39562023 -0.05554555 -1.256587 1118995
0.63585603 -0.052137405 -1.2564216 1381652
0.56573421 -0.052151266 -1.2567571 2763305
0.39620835 -0.053357586 -1.258455 921616
0.34367752 -0.052176528 -1.2573264 2764848
0.63627672 -0.047636248 -1.2572529 1579032
0.56619596 -0.047656409 -1.2577829 2894891
0.34343955 -0.046472035 -1.2564558 2501419
0.63535303 -0.044168938 -1.2554277 2302754
0.63478023 -0.042015873 -1.2587835 1842204
0.56526673 -0.044179171 -1.2557186 3158063
0.56469524 -0.042039692 -1.2594972 3026477
0.39584845 -0.043101892 -1.2573121 1645339
0.34402803 -0.044280853 -1.2586087 2304040
0.63234556 -0.038530022 -1.2562027 2565926
0.62894452 -0.03513024 -1.2562001 3092270
0.5634582 -0.037414383 -1.2567381 3223856
0.34616834 -0.036318343 -1.2581344 2172454
0.62277156 -0.032896865 -1.2574649 7171949
0.56195414 -0.031787939 -1.2584476 3289649
0.38406622 -0.032855231 -1.2558736 9934999
0.34771127 -0.030580482 -1.2555093 2237991
0.56072348 -0.027187221 -1.2556918 3618614
0.55952406 -0.022699373 -1.2580888 3684407
0.5583089 -0.01815474 -1.2579119 3882042
0.55664706 -0.014738113 -1.2567182 4342337
0.55325115 -0.011337113 -1.2567301 4342336
0.37616709 -0.010228111 -1.259773 2172198
0.37082818 -0.012474347 -1.2570846 3949381
0.5487231 -0.0068023503 -1.2567456 4276544
0.38198546 -0.0079344185 -1.2564825 3818309
0.54532695 -0.0034012084 -1.2567571 4342337
0.54306287 -0.0011337431 -1.2567649 4539459
0.39976642 -0.0011324831 -1.2553681 3883845
0.39382166 -0.0034047992 -1.2580839 3818052
0.5407986 0.00113375 -1.2567725 4605509
0.53853446 0.0034012711 -1.2567803 4868680
0.4116146 0.0034017747 -1.2569664 3818052
0.40568796 0.0011363812 -1.2596892 2172198
0.53627026 0.0056688199 -1.256788 5066059
0.534006 0.0079363966 -1.2567958 5197644
0.42349306 0.007947593 -1.2585688 3752258
0.52741557 0.010208045 -1.2573016 7763053
0.51893294 0.01249073 -1.2587355 5329488
0.51063973 0.014719109 -1.2550977 11316395
0.44126645 0.014746698 -1.2574502 3620672
0.42937601 0.010196267 -1.2558508 3686466
0.50215292 0.017002923 -1.2565267 8158844
0.45318729 0.019308737 -1.2590538 2106404
0.47069845 0.023818482 -1.2572862 3883073
0.45900831 0.02153373 -1.2563337 3686209
0.48279709 0.026127849 -1.2592593 4145473
0.51914799 -0.11043312 -1.2620221 2368804
0.51087451 -0.11264273 -1.2612679 2434597
0.50983733 -0.11291703 -1.2643392 2303268
0.50208247 -0.11498944 -1.2620482 2368804
0.44688511 -0.11484837 -1.2605 5990506
0.53401655 -0.10589243 -1.2621802 2236962
0.52743047 -0.1082201 -1.2627684 2368804
0.43002635 -0.10836211 -1.2644254 6056043
0.53743649 -0.10247731 -1.2621896 2236962
0.41730428 -0.1034733 -1.2604519 6319729
0.54199642 -0.097923741 -1.2622023 2302754
0.40034714 -0.096950196 -1.2643553 6253679
0.54655647 -0.09337008 -1.2622148 2236962
0.3877168 -0.092096984 -1.2603749 6451315
0.55339813 -0.086539634 -1.2622368 2236962
0.54997665 -0.089954793 -1.2622244 2236961
0.55739605 -0.082069427 -1.263556 2302754
0.36566481 -0.083157443 -1.2627507 5134684
0.3609871 -0.080852024 -1.2623272 4278603
0.55894268 -0.077408992 -1.2619009 2236961
0.35757607 -0.077436872 -1.2623457 3949637
0.56049794 -0.071625508 -1.2602786 2302754
0.55982852 -0.074111737 -1.2639009 2236961
0.35303032 -0.072883703 -1.2623793 3752258
0.62381703 -0.065004714 -1.2641813 1447702
0.56168211 -0.067217976 -1.2629414 2236961
0.34866545 -0.068365313 -1.2630709 3488829
0.63167512 -0.060322139 -1.2616539 1381653
0.62939394 -0.06259796 -1.2616441 1381653
0.62446076 -0.064834736 -1.2608757 1579032
0.56323504 -0.061443236 -1.2613161 2236962
0.39113939 -0.061399803 -1.2604122 1250324
0.38403141 -0.064954884 -1.2632123 1645338
0.34706789 -0.064861894 -1.2614038 3357243
0.6344071 -0.056947775 -1.2625608 1644825
0.56442559 -0.057012096 -1.2639823 2368548
0.39553663 -0.055853892 -1.2635626 1908511
0.39455384 -0.057989199 -1.2604229 1316117
0.34526509 -0.058113944 -1.2631344 2962228
0.34462816 -0.055731963 -1.2608042 2896435
0.6356898 -0.052753314 -1.2620955 1513239
0.56567794 -0.052355923 -1.2616889 2565926
0.39679822 -0.051163111 -1.2603287 1316117
0.34345722 -0.051347442 -1.2648693 2567213
0.63632411 -0.047810249 -1.2618451 1842204
0.56624866 -0.047852643 -1.2629621 2631976
0.39708906 -0.047788098 -1.2612524 1776925
0.3430903 -0.047872193 -1.2635181 2369833
0.63541806 -0.044411093 -1.2623106 2236962
0.63482153 -0.042169482 -1.2633855 2894891
0.56531554 -0.044360787 -1.2608807 2894891
0.56474185 -0.042213034 -1.2646904 2894891
0.39560503 -0.042182684 -1.2637811 2961456
0.34461853 -0.042082146 -1.260769 2172197
0.63249683 -0.038677868 -1.2610229 2236962
0.62908345 -0.035265081 -1.2610217 2434341
0.56350034 -0.037568364 -1.2619101 3092270
0.39339346 -0.038657166 -1.2603483 2434855
0.38999143 -0.03524705 -1.2603769 2698027
0.34521109 -0.039875884 -1.2629368 2106148
0.6233508 -0.033047855 -1.2632364 6513763
0.56199032 -0.03191895 -1.2636342 3223856
0.34735852 -0.031887684 -1.26246 2106404
0.56075448 -0.027299024 -1.2608554 3421235
0.35175309 -0.026182279 -1.2618827 2106405
0.34947285 -0.028458711 -1.2618699 2106405
0.55955017 -0.022792902 -1.2632724 3487028
0.35631374 -0.021629276 -1.2619082 2106405
0.35403344 -0.023905803 -1.2618955 2106405
0.55862695 -0.019341465 -1.261188 3684406
0.36087477 -0.017076099 -1.2619344 2106405
0.35859424 -0.019352712 -1.2619213 2106405
0.55671299 -0.014800144 -1.2620076 3815992
0.55330288 -0.011384832 -1.2620198 3881785
0.37064683 -0.012544974 -1.2642019 2106405
0.3653011 -0.01479413 -1.2614948 2172198
0.54875594 -0.0068309847 -1.2620358 4013115
0.38785097 -0.0056869662 -1.2608111 2172198
0.38185433 -0.0079790475 -1.2635499 2106405
0.54534549 -0.0034155257 -1.2620474 4144957
0.54307181 -0.0011385155 -1.2620552 4210750
0.39973548 -0.0011388478 -1.2624235 2106405
0.54079813 0.0011385226 -1.262063 4276287
0.53852439 0.003415589 -1.2620708 4276544
0.41165039 0.0034209182 -1.26404 2106404
0.53625065 0.0056926836 -1.2620786 4342336
0.53397691 0.007969806 -1.2620864 4408386
0.41758454 0.0056891642 -1.2612984 2106405
0.5272761 0.010249429 -1.2623987 5000523
0.51875716 0.012541384 -1.2638402 5000523
0.51043099 0.014778629 -1.260173 5263952
0.44146916 0.014829718 -1.2645293 2040355
0.43540177 0.012505014 -1.2601751 2106404
0.42951161 0.010253596 -1.2629119 2040612
0.50190955 0.017071757 -1.2616136 10329755
0.44734094 0.017074086 -1.2617856 2106148
0.45933902 0.021656187 -1.2634783 1909025
0.49493375 0.028444475 -1.2612387 5723215
0.50102341 -0.11526965 -1.2651236 9276812
0.51710773 -0.11097255 -1.2681868 2237218
0.50879526 -0.11319268 -1.2674258 2237218
0.44282892 -0.11328185 -1.2684242 4341560
0.53363389 -0.10626973 -1.2666774 2236962
0.52592993 -0.10861628 -1.2673912 2302754
0.53706604 -0.10284245 -1.2666869 2236961
0.41305757 -0.10183416 -1.268361 4670527
0.54164219 -0.098272651 -1.2666996 2236961
0.5473631 -0.092560373 -1.2667165 2236961
0.38327247 -0.090383686 -1.2682426 4802369
0.55308557 -0.086848155 -1.2667369 2236961
0.37210187 -0.085869692 -1.2691648 3752001
0.55720234 -0.082377598 -1.2683041 2236962
0.55885941 -0.077714011 -1.2668732 2236961
0.56042087 -0.071907379 -1.2652382 2236961
0.55974871 -0.07440424 -1.2688892 2236961
0.6231699 -0.065175578 -1.2675042 4802888
0.56160963 -0.06748306 -1.2679219 2236961
0.38313776 -0.065190628 -1.2677969 1447703
0.63137054 -0.060620915 -1.2679029 1315859
0.62907797 -0.062907994 -1.2678928 1315860
0.56316876 -0.061685234 -1.2662839 2236961
0.391969 -0.06056666 -1.2667681 2237733
0.38968113 -0.062851816 -1.2667605 2303269
0.34622508 -0.061704561 -1.2666464 3159607
0.63428295 -0.057141677 -1.2668625 1315860
0.56436384 -0.057237115 -1.268971 2368547
0.39425677 -0.058281451 -1.2667753 2237476
0.34473318 -0.056119375 -1.2695684 2830641
0.63573098 -0.052598052 -1.2674739 1381653
0.56562114 -0.052562181 -1.2666596 2500133
0.39642441 -0.052551106 -1.2663987 2237476
0.34409401 -0.053728983 -1.2672145 2764591
0.63635933 -0.047984548 -1.2664459 1907996
0.56625503 -0.048046432 -1.268079 2566183
0.39709014 -0.04806345 -1.2685254 2435111
0.63548386 -0.044655629 -1.2692611 1447446
0.63486308 -0.042324211 -1.2680212 1710618
0.56536478 -0.0445439 -1.2660854 2829098
0.56447673 -0.041220039 -1.2692249 2960684
0.39623353 -0.044533465 -1.2657888 3224885
0.39479193 -0.040051367 -1.2684947 3027249
0.34424698 -0.043458782 -1.2677779 2172197
0.63264918 -0.038826849 -1.2658803 2697769
0.62922347 -0.035400964 -1.2658807 3026734
0.56323123 -0.036559254 -1.2664244 3092270
0.39136738 -0.036619175 -1.268522 3487800
0.34610403 -0.036551267 -1.2662036 2106404
0.56202662 -0.032051034 -1.2688633 3223599
0.38517562 -0.033145685 -1.266976 6250591
0.34700125 -0.033211354 -1.2694861 2106404
0.56078577 -0.027411751 -1.2660619 3355442
0.3515887 -0.026340531 -1.2695098 2106404
0.34929463 -0.028630719 -1.2694968 2106404
0.55957651 -0.022887204 -1.2684989 3487028
0.356177 -0.021760017 -1.2695359 2106404
0.35388276 -0.024050293 -1.2695227 2106404
0.55834126 -0.018269468 -1.2656987 3684150
0.36076567 -0.017179323 -1.2695627 2106404
0.35847133 -0.019469695 -1.2695494 2106404
0.55677956 -0.014862701 -1.2673419 3750200
0.5533551 -0.011432955 -1.2673541 3815993
0.3760156 -0.010286144 -1.2669208 2106404
0.36508769 -0.014878186 -1.2686622 2106404
0.54878891 -0.0068598595 -1.2673705 3947579
0.3877525 -0.0057190652 -1.2679275 2040612
0.5453642 -0.0034299642 -1.2673825 4079164
0.54308093 -0.0011433285 -1.2673904 4144958
0.39970404 -0.0011452842 -1.2695582 2040355
0.39375702 -0.0034239751 -1.2651695 2106148
0.54079759 0.0011433356 -1.2673982 4276543
0.53851426 0.0034300277 -1.267406 4276544
0.40569022 0.0011427897 -1.2667931 2040612
0.53623086 0.0057167485 -1.2674139 4276544
0.53394753 0.0080034975 -1.2674217 4342337
0.42359582 0.0079923756 -1.2656605 2040611
0.41765416 0.0057212915 -1.2684211 1974819
0.52713543 0.01029115 -1.2675374 4671559
0.51858091 0.012592476 -1.2689888 4671558
0.51022047 0.01483863 -1.2652893 4934730
0.43557185 0.012575569 -1.2672851 1974818
0.45345742 0.019417576 -1.266151 1974818
0.44757867 0.017170541 -1.2689137 1974562
0.47147816 0.023973471 -1.2654675 3554366
0.49587345 0.028630113 -1.26947 3420460
0.48365623 0.026298098 -1.2674648 5526350
0.45571271 -0.11823279 -1.2724482 5325622
0.51556414 -0.11138026 -1.272846 2105889
0.50722194 -0.11360887 -1.2720858 2040096
0.53276074 -0.10678209 -1.2727845 2236961
0.52441967 -0.10901506 -1.2720443 2236962
0.42584878 -0.10674918 -1.2723922 5391927
0.53669292 -0.1032102 -1.2712164 2236962
0.5424338 -0.097477548 -1.2712327 2236705
0.39596784 -0.095261857 -1.2722731 5523515
0.54817629 -0.091745004 -1.2712524 2171169
0.55277079 -0.087158896 -1.2712692 2171425
0.55700707 -0.082688093 -1.273088 2236961
0.36196956 -0.081586815 -1.2737993 5786687
0.55877554 -0.078021452 -1.2718852 2236962
0.35822138 -0.078073919 -1.2727305 3883587
0.56034327 -0.072191477 -1.270237 2302498
0.55966818 -0.074699052 -1.273917 2302754
0.35248968 -0.072335027 -1.2727631 3620415
0.56153649 -0.067750238 -1.2729419 2302498
0.38223872 -0.065428264 -1.2724184 8421502
0.34754807 -0.066528559 -1.2714866 3357242
0.63106334 -0.06092234 -1.2742072 921102
0.62875932 -0.063220784 -1.274197 921102
0.56310183 -0.061929137 -1.2712908 2236961
0.39165726 -0.060873434 -1.2731844 1118738
0.38935784 -0.063170165 -1.2731768 1184531
0.34601849 -0.060926862 -1.2743019 3093814
0.6338945 -0.057765897 -1.2722019 921102
0.56430149 -0.057463907 -1.2739992 2368547
0.39545211 -0.056165677 -1.2706159 1579289
0.39395666 -0.058576666 -1.2731918 1118738
0.34537464 -0.058518648 -1.2719308 2962228
0.635773 -0.052439392 -1.2728999 921102
0.56556398 -0.052770074 -1.2716696 2500133
