# .PCD v0.7 - Point Cloud Data file format
VERSION 0.7
FIELDS x y z rgb
SIZE 4 4 4 4
TYPE F F F U
COUNT 1 1 1 1
WIDTH 947
HEIGHT 1
VIEWPOINT 0 0 0 1 0 0 0
POINTS 947
DATA ascii
-0.55148381 -0.34695372 -1.1870414 5847063
-0.55755657 -0.34673378 -1.1862891 6504733
-0.56290746 -0.34673375 -1.1862891 6570783
-0.56718808 -0.34673378 -1.1862891 6636833
-0.57253891 -0.34673378 -1.1862892 6570527
-0.5778898 -0.34673381 -1.1862892 6438428
-0.58217049 -0.34673381 -1.1862891 6504734
-0.58752126 -0.34673381 -1.1862892 6504733
-0.59287214 -0.34673381 -1.1862891 6372635
-0.59715277 -0.34673381 -1.1862891 6240793
-0.60250354 -0.34673378 -1.186289 6174744
-0.60785437 -0.34673378 -1.186289 6307098
-0.61213505 -0.34673378 -1.186289 6372891
-0.61748588 -0.34673378 -1.186289 6307099
-0.62283671 -0.34673375 -1.1862891 6241305
-0.6271174 -0.34673375 -1.1862891 6109721
-0.63246828 -0.34673378 -1.1862892 5978136
-0.63781905 -0.34673375 -1.1862891 5912601
-0.64209974 -0.34673375 -1.1862891 5517077
-0.64745057 -0.34673378 -1.1862891 5516820
-0.5514816 -0.34266898 -1.1870366 5978648
-0.55755502 -0.34245217 -1.1862857 6570270
-0.56290591 -0.34245217 -1.1862857 6702369
-0.56718647 -0.34245217 -1.1862857 6834468
-0.5725373 -0.34245217 -1.1862857 6702370
-0.57788813 -0.34245217 -1.1862857 6570014
-0.58216876 -0.34245217 -1.1862857 6636062
-0.58751959 -0.34245217 -1.1862857 6504221
-0.59287041 -0.34245217 -1.1862857 6438171
-0.5971511 -0.34245217 -1.1862857 6306329
-0.60250181 -0.34245214 -1.1862856 6240537
-0.60785264 -0.34245211 -1.1862856 6504476
-0.61213332 -0.34245214 -1.1862856 6504732
-0.61748415 -0.34245214 -1.1862856 6439196
-0.62283492 -0.34245211 -1.1862856 6438683
-0.62711561 -0.34245211 -1.1862856 6241306
-0.63246638 -0.34245214 -1.1862856 6109464
-0.6378172 -0.34245211 -1.1862856 6109464
-0.64209783 -0.34245211 -1.1862856 5779989
-0.64744866 -0.34245217 -1.1862856 5648404
-0.55127245 -0.33798558 -1.1872455 5912857
-0.55755341 -0.33817053 -1.1862822 6635549
-0.56290424 -0.3381705 -1.1862823 6833699
-0.56718487 -0.33817053 -1.1862823 6900006
-0.57253563 -0.33817053 -1.1862822 6767906
-0.57788646 -0.33817053 -1.1862823 6635806
-0.58216715 -0.33817053 -1.1862823 6635806
-0.58751792 -0.33817053 -1.1862823 6569756
-0.59286869 -0.3381705 -1.1862823 6306074
-0.59714931 -0.33817053 -1.1862823 6240024
-0.60250008 -0.3381705 -1.1862822 6306329
-0.60785091 -0.3381705 -1.1862822 6570525
-0.61213154 -0.33817047 -1.1862822 6636317
-0.6174823 -0.3381705 -1.1862822 6570781
-0.62283313 -0.3381705 -1.1862822 6504988
-0.62711382 -0.3381705 -1.1862822 6372634
-0.63246453 -0.33817053 -1.1862822 6240791
-0.63781542 -0.3381705 -1.1862823 6175256
-0.64209604 -0.3381705 -1.1862822 5845781
-0.64744681 -0.3381705 -1.1862822 5713683
-0.55165744 -0.33270776 -1.1868386 6307614
-0.55755138 -0.33281851 -1.186278 6833698
-0.56290215 -0.33281851 -1.186278 7031334
-0.56718284 -0.33281854 -1.186278 7031592
-0.57253361 -0.33281851 -1.186278 6965541
-0.57788438 -0.33281851 -1.186278 6701599
-0.582165 -0.33281854 -1.186278 6833184
-0.58751571 -0.33281851 -1.186278 6767392
-0.5928666 -0.33281854 -1.186278 6569500
-0.59714717 -0.33281854 -1.186278 6437658
-0.60249794 -0.33281851 -1.1862779 6437914
-0.6078487 -0.33281851 -1.1862779 6767647
-0.61212933 -0.33281851 -1.186278 6768160
-0.61748016 -0.33281851 -1.1862779 6702110
-0.62283093 -0.33281851 -1.186278 6702109
-0.62711149 -0.33281851 -1.186278 6504475
-0.63246232 -0.33281854 -1.186278 6306583
-0.63781309 -0.33281854 -1.186278 6241047
-0.64209372 -0.33281851 -1.1862779 6108693
-0.64744455 -0.33281851 -1.1862781 5911060
-0.55147403 -0.32767263 -1.1870203 6373667
-0.55754942 -0.32746658 -1.1862737 7031336
-0.56290019 -0.32746658 -1.1862738 6965286
-0.56718081 -0.32746658 -1.1862737 6899236
-0.57253158 -0.32746658 -1.1862737 6965028
-0.57788235 -0.32746661 -1.1862738 6964772
-0.58216292 -0.32746661 -1.1862738 7030564
-0.58751374 -0.32746661 -1.1862739 7030820
-0.59286445 -0.32746661 -1.1862738 6899234
-0.59714508 -0.32746661 -1.1862738 6635293
-0.60249579 -0.32746658 -1.1862737 6569244
-0.60784656 -0.32746655 -1.1862737 6833440
-0.61212713 -0.32746655 -1.1862737 6899489
-0.61747795 -0.32746658 -1.1862737 6833439
-0.62282866 -0.32746655 -1.1862737 6833438
-0.62710929 -0.32746655 -1.1862737 6701596
-0.63246006 -0.32746658 -1.1862736 6438169
-0.63781083 -0.32746655 -1.1862738 6372376
-0.64209139 -0.32746655 -1.1862737 6174486
-0.64744216 -0.32746658 -1.1862737 5910805
-0.55126423 -0.32298636 -1.1872276 6308648
-0.55754781 -0.32318506 -1.1862704 7162922
-0.56289858 -0.32318503 -1.1862704 7031080
-0.56717914 -0.32318503 -1.1862704 6965287
-0.57252991 -0.32318506 -1.1862704 7162665
-0.57788062 -0.32318503 -1.1862704 7294507
-0.58216125 -0.32318503 -1.1862704 7228458
-0.58751196 -0.32318506 -1.1862704 7096870
-0.59286273 -0.32318503 -1.1862704 6964771
-0.59714335 -0.32318503 -1.1862704 6635294
-0.60249394 -0.323185 -1.1862704 6569501
-0.60784477 -0.323185 -1.1862702 6833441
-0.6121254 -0.323185 -1.1862702 6899232
-0.61747611 -0.323185 -1.1862702 6833182
-0.62282687 -0.323185 -1.1862702 6833438
-0.62710744 -0.32318503 -1.1862702 6701853
-0.63245827 -0.32318506 -1.1862704 6504219
-0.63780898 -0.32318503 -1.1862702 6372377
-0.64208955 -0.323185 -1.1862702 6240279
-0.64744031 -0.32318503 -1.1862704 5911061
-0.55165035 -0.31771442 -1.1868232 6768942
-0.55754578 -0.31783316 -1.1862659 7360819
-0.56289655 -0.31783316 -1.1862661 7163184
-0.56717712 -0.31783316 -1.1862661 7097390
-0.57252783 -0.31783316 -1.1862661 7294767
-0.57787853 -0.31783316 -1.1862661 7294510
-0.58215916 -0.31783316 -1.1862661 7294252
-0.58750993 -0.31783316 -1.1862661 7162408
-0.59286058 -0.31783316 -1.1862661 7030566
-0.59714121 -0.31783316 -1.1862661 6767138
-0.60249186 -0.31783316 -1.1862659 6635551
-0.60784256 -0.31783316 -1.1862659 6833185
-0.61212313 -0.31783316 -1.1862661 6833183
-0.61747396 -0.31783316 -1.1862662 6832926
-0.62282467 -0.31783316 -1.1862661 6899230
-0.62710524 -0.31783316 -1.1862659 6833694
-0.63245595 -0.31783316 -1.1862661 6636061
-0.63780671 -0.31783316 -1.1862661 6503962
-0.64208722 -0.31783316 -1.1862659 6306071
-0.64743799 -0.31783316 -1.1862661 6042647
-0.55146635 -0.31267676 -1.187004 6835510
-0.55754381 -0.31248131 -1.1862618 7558972
-0.56289452 -0.31248131 -1.1862619 7492922
-0.56717509 -0.31248131 -1.1862619 7426872
-0.5725258 -0.31248131 -1.1862619 7492663
-0.57787651 -0.31248131 -1.1862618 7426355
-0.58215702 -0.31248131 -1.1862619 7360304
-0.58750778 -0.31248131 -1.1862619 7228459
-0.59285843 -0.31248131 -1.1862619 7162408
-0.59713906 -0.31248131 -1.1862619 7162407
-0.60248971 -0.31248128 -1.1862618 6964772
-0.60784042 -0.31248128 -1.1862618 6766879
-0.61212099 -0.31248128 -1.1862618 6569244
-0.61747169 -0.31248128 -1.1862618 6635292
-0.6228224 -0.31248128 -1.1862618 6767132
-0.62710297 -0.31248128 -1.1862618 6701083
-0.63245374 -0.31248128 -1.1862618 6569755
-0.63780439 -0.31248128 -1.1862617 6372120
-0.64208496 -0.31248128 -1.1862618 6306071
-0.64743572 -0.31248128 -1.1862618 6042647
-0.551256 -0.3079876 -1.18721 6902590
-0.5575422 -0.30819985 -1.1862583 7822660
-0.56289285 -0.30819985 -1.1862584 7690817
-0.56717348 -0.30819985 -1.1862584 7558975
-0.57252419 -0.30819985 -1.1862584 7624509
-0.57787484 -0.30819985 -1.1862584 7558201
-0.58215541 -0.30819985 -1.1862584 7426613
-0.58750612 -0.30819985 -1.1862583 7294254
-0.59285676 -0.30819985 -1.1862584 7162410
-0.59713733 -0.30819985 -1.1862584 7162151
-0.60248798 -0.30819985 -1.1862582 6964771
-0.60783863 -0.30819982 -1.1862583 6767135
-0.6121192 -0.30819985 -1.1862583 6568987
-0.61746997 -0.30819985 -1.1862584 6635292
-0.62282062 -0.30819985 -1.1862584 6767133
-0.62710118 -0.30819985 -1.1862583 6635291
-0.63245183 -0.30819982 -1.1862584 6569497
-0.6378026 -0.30819985 -1.1862584 6306071
-0.64208311 -0.30819982 -1.1862583 6438169
-0.64743382 -0.30819985 -1.1862583 6372380
-0.55164325 -0.30272144 -1.186808 7363656
-0.55754024 -0.30284807 -1.186254 8086864
-0.56289089 -0.30284807 -1.1862541 8020813
-0.56717139 -0.30284807 -1.1862541 7888969
-0.57252204 -0.30284807 -1.1862541 7888454
-0.57787281 -0.30284807 -1.1862541 7822401
-0.58215332 -0.30284807 -1.1862541 7690043
-0.58750403 -0.3028481 -1.186254 7557941
-0.59285462 -0.30284807 -1.1862541 7360560
-0.59713519 -0.3028481 -1.1862541 7162409
-0.60248578 -0.30284804 -1.186254 7030564
-0.60783654 -0.30284807 -1.1862541 6964771
-0.61211699 -0.30284804 -1.1862541 6832927
-0.61746776 -0.3028481 -1.186254 6898719
-0.62281841 -0.30284807 -1.1862541 6898718
-0.62709892 -0.30284804 -1.1862541 6701083
-0.63244957 -0.30284807 -1.186254 6569753
-0.63780028 -0.30284804 -1.1862541 6503448
-0.64208078 -0.30284804 -1.1862541 6635803
-0.64743149 -0.30284807 -1.1862541 6570527
-0.55145866 -0.29768127 -1.1869873 7430478
-0.55753821 -0.29749632 -1.1862497 8352093
-0.56288886 -0.29749632 -1.18625 8285786
-0.56716937 -0.29749632 -1.18625 8219221
-0.57252008 -0.29749632 -1.1862499 8086863
-0.57787073 -0.29749632 -1.18625 8020040
-0.58215123 -0.29749632 -1.1862499 7822145
-0.58750188 -0.29749635 -1.1862499 7624250
-0.59285253 -0.29749632 -1.1862499 7492148
-0.59713304 -0.29749632 -1.1862499 7228460
-0.60248369 -0.29749635 -1.1862499 7096872
-0.60783434 -0.29749632 -1.1862499 7228455
-0.61211479 -0.29749632 -1.1862497 7228197
-0.61746544 -0.29749632 -1.1862499 7096867
-0.62281621 -0.29749632 -1.1862499 6899231
-0.62709665 -0.29749632 -1.1862499 6701596
-0.63244736 -0.29749632 -1.1862497 6635289
-0.63779795 -0.29749632 -1.1862499 6437912
-0.64207852 -0.29749632 -1.1862497 6570010
-0.64742911 -0.29749629 -1.1862497 6570528
-0.54999673 -0.29268828 -1.1884531 5653298
-0.5521856 -0.29214463 -1.1862458 8154199
-0.55753618 -0.29214463 -1.1862456 8352094
-0.56288683 -0.29214463 -1.1862457 8285786
-0.56716734 -0.29214463 -1.1862458 8219221
-0.57251799 -0.29214463 -1.1862457 8021071
-0.57786864 -0.29214463 -1.1862458 8020298
-0.58214915 -0.29214463 -1.1862456 7822403
-0.58749974 -0.29214463 -1.1862456 7624508
-0.59285039 -0.29214463 -1.1862456 7492406
-0.59713089 -0.29214463 -1.1862456 7228718
-0.60248154 -0.29214463 -1.1862456 7162409
-0.60783213 -0.29214463 -1.1862457 7228456
-0.61211258 -0.29214463 -1.1862456 7228454
-0.61746329 -0.29214463 -1.1862456 7162660
-0.62281394 -0.29214463 -1.1862456 7030817
-0.62709445 -0.29214463 -1.1862456 6767133
-0.63244504 -0.29214466 -1.1862456 6569754
-0.63779569 -0.29214457 -1.1862456 6437656
-0.64207619 -0.29214463 -1.1862456 6570010
-0.64742684 -0.29214463 -1.1862454 6504479
-0.54999256 -0.28732547 -1.1884439 5455146
-0.55218357 -0.28679296 -1.1862414 8020812
-0.55753422 -0.28679296 -1.1862415 8218706
-0.56288481 -0.28679296 -1.1862414 8086863
-0.56716532 -0.28679296 -1.1862414 7954764
-0.5725159 -0.28679296 -1.1862413 7822663
-0.57786655 -0.28679296 -1.1862414 7822146
-0.58214706 -0.28679296 -1.1862414 7690302
-0.58749759 -0.28679293 -1.1862413 7623993
-0.59284824 -0.28679296 -1.1862414 7492147
-0.59712869 -0.28679293 -1.1862413 7162924
-0.60247934 -0.28679293 -1.1862413 6964774
-0.60782993 -0.28679296 -1.1862414 7228456
-0.61211044 -0.28679293 -1.1862413 7228455
-0.61746103 -0.28679293 -1.1862413 7162661
-0.62281168 -0.28679293 -1.1862413 7030818
-0.62709212 -0.28679293 -1.1862413 6767133
-0.63244277 -0.28679296 -1.1862414 6635290
-0.63779342 -0.28679293 -1.1862414 6503449
-0.64207387 -0.28679293 -1.1862413 6635547
-0.64742452 -0.28679293 -1.1862413 6570271
-0.54998916 -0.28303528 -1.1884367 5323045
-0.55218196 -0.28251165 -1.1862379 7690818
-0.55753261 -0.28251165 -1.1862379 7888455
-0.5628832 -0.28251165 -1.1862379 7822405
-0.56716365 -0.28251165 -1.1862379 7690818
-0.5725143 -0.28251165 -1.1862379 7624511
-0.57786489 -0.28251165 -1.1862381 7689787
-0.58214533 -0.28251165 -1.1862381 7689528
-0.58749598 -0.28251165 -1.1862379 7557940
-0.59284651 -0.28251165 -1.1862379 7425839
-0.59712702 -0.28251165 -1.1862379 7096360
-0.60247761 -0.28251165 -1.1862379 7030565
-0.6078282 -0.28251165 -1.1862379 7228199
-0.61210871 -0.28251165 -1.1862379 7227941
-0.6174593 -0.28251165 -1.1862379 7096610
-0.62280989 -0.28251165 -1.1862379 7096355
-0.62709033 -0.28251165 -1.1862379 6767133
-0.63244098 -0.28251165 -1.1862379 6635290
-0.63779163 -0.28251165 -1.1862379 6503449
-0.64207202 -0.28251165 -1.1862379 6569498
-0.64742261 -0.28251165 -1.1862379 6503966
-0.54998493 -0.27767265 -1.1884276 5191455
-0.55217999 -0.27716005 -1.1862336 7426872
-0.55753064 -0.27716005 -1.1862338 7426873
-0.56288117 -0.27716008 -1.1862338 7558458
-0.56716168 -0.27716008 -1.1862338 7623993
-0.57251221 -0.27716005 -1.1862338 7557941
-0.5778628 -0.27716005 -1.1862336 7557682
-0.58214325 -0.27716005 -1.1862336 7425838
-0.58749384 -0.27716005 -1.1862336 7491373
-0.59284443 -0.27716005 -1.1862336 7359786
-0.59712487 -0.27716005 -1.1862336 7096100
-0.60247546 -0.27716005 -1.1862336 7030305
-0.60782605 -0.27716005 -1.1862336 7227940
-0.6121065 -0.27716005 -1.1862336 7162146
-0.61745709 -0.27716005 -1.1862336 7096353
-0.62280768 -0.27716005 -1.1862338 7096354
-0.62708807 -0.27716005 -1.1862336 6767133
-0.63243872 -0.27716005 -1.1862338 6635290
-0.63778931 -0.27716005 -1.1862336 6503705
-0.64206976 -0.27716005 -1.1862336 6437657
-0.64742029 -0.27716005 -1.1862338 6306331
-0.54998076 -0.27231011 -1.1884185 5125404
-0.55217803 -0.27180851 -1.1862295 7162926
-0.55752856 -0.27180853 -1.1862295 7228719
-0.56287915 -0.27180853 -1.1862295 7360304
-0.56715959 -0.27180853 -1.1862295 7491889
-0.57251018 -0.27180853 -1.1862296 7491630
-0.57786071 -0.27180851 -1.1862295 7293993
-0.58214116 -0.27180851 -1.1862293 7227943
-0.58749169 -0.27180851 -1.1862293 7425321
-0.59284234 -0.27180851 -1.1862293 7293734
-0.59712273 -0.27180851 -1.1862295 7095841
-0.60247332 -0.27180848 -1.1862293 7030303
-0.60782385 -0.27180851 -1.1862295 7162146
-0.6121043 -0.27180851 -1.1862293 7096353
-0.61745483 -0.27180848 -1.1862293 7030561
-0.62280542 -0.27180851 -1.1862293 7031074
-0.6270858 -0.27180851 -1.1862293 6898718
-0.63243639 -0.27180848 -1.1862293 6899231
-0.63778698 -0.27180851 -1.1862295 6767646
-0.64206743 -0.27180848 -1.1862293 6569755
-0.64741796 -0.27180848 -1.1862293 6174489
-0.5499773 -0.26802009 -1.1884111 4993303
-0.55217642 -0.26752728 -1.186226 7096874
-0.55752701 -0.26752728 -1.186226 7228202
-0.56287754 -0.26752728 -1.186226 7228458
-0.56715792 -0.26752728 -1.186226 7425836
-0.57250851 -0.26752728 -1.186226 7425578
-0.57785904 -0.26752728 -1.186226 7227941
-0.58213943 -0.26752728 -1.186226 7227684
-0.58749002 -0.26752728 -1.186226 7227941
-0.59284061 -0.26752728 -1.186226 7161890
-0.597121 -0.26752728 -1.1862259 6963998
-0.60247153 -0.26752728 -1.186226 6898461
-0.60782206 -0.26752728 -1.186226 7096096
-0.61210251 -0.26752728 -1.1862259 7030559
-0.6174531 -0.26752725 -1.1862259 6964767
-0.62280363 -0.26752728 -1.186226 7030817
-0.62708402 -0.26752728 -1.1862259 6833438
-0.63243467 -0.26752728 -1.186226 6833437
-0.63778514 -0.26752728 -1.186226 6767388
-0.64206553 -0.26752725 -1.1862259 6438170
-0.64741611 -0.26752728 -1.1862259 6174232
-0.54997307 -0.26265767 -1.1884021 4861717
-0.55217439 -0.26217583 -1.1862217 6898978
-0.55752504 -0.26217583 -1.1862218 7030307
-0.56287545 -0.26217583 -1.1862217 7161892
-0.5671559 -0.2621758 -1.1862218 7293734
-0.57250649 -0.2621758 -1.1862217 7293734
-0.57785702 -0.2621758 -1.1862217 7227683
-0.58213741 -0.2621758 -1.1862218 7030047
-0.58748794 -0.2621758 -1.1862218 6766621
-0.59283847 -0.2621758 -1.1862217 6832413
-0.59711885 -0.2621758 -1.1862217 6832155
-0.60246938 -0.26217583 -1.1862217 6832411
-0.60781991 -0.26217583 -1.1862217 6898460
-0.6121003 -0.26217583 -1.1862217 6898460
-0.61745083 -0.2621758 -1.1862218 6700826
-0.62280136 -0.2621758 -1.1862217 6569241
-0.62708181 -0.2621758 -1.1862217 6503449
-0.63243228 -0.2621758 -1.1862217 6635802
-0.63778287 -0.2621758 -1.1862217 6570010
-0.64206326 -0.2621758 -1.1862217 6372377
-0.64741373 -0.2621758 -1.1862216 6108438
-0.5499689 -0.25729531 -1.1883929 4730387
-0.55217248 -0.25682434 -1.1862174 6767133
-0.55752295 -0.25682434 -1.1862174 6701085
-0.56287348 -0.25682434 -1.1862174 6964511
-0.56715393 -0.25682434 -1.1862174 7096353
-0.57250434 -0.25682434 -1.1862174 7162146
-0.57785487 -0.25682434 -1.1862174 7162402
-0.58213532 -0.25682434 -1.1862175 6898461
-0.58748585 -0.25682434 -1.1862175 6568473
-0.59283632 -0.25682434 -1.1862174 6634521
-0.59711671 -0.25682434 -1.1862174 6766618
-0.60246724 -0.25682434 -1.1862174 6766618
-0.60781777 -0.25682434 -1.1862174 6634776
-0.61209816 -0.25682434 -1.1862174 6634776
-0.61744863 -0.25682434 -1.1862174 6568984
-0.6227991 -0.25682431 -1.1862175 6305814
-0.62707955 -0.25682431 -1.1862174 6239766
-0.63243002 -0.25682434 -1.1862174 6570010
-0.63778055 -0.25682434 -1.1862175 6504474
-0.642061 -0.25682434 -1.1862174 6372375
-0.64741147 -0.25682434 -1.1862174 6240534
-0.5499655 -0.2530055 -1.1883855 4664594
-0.55217087 -0.25254321 -1.1862141 6635547
-0.55752134 -0.25254321 -1.1862141 6766876
-0.56287187 -0.25254321 -1.1862141 6898975
-0.56715226 -0.25254321 -1.1862141 7030817
-0.57250273 -0.25254321 -1.1862141 7030560
-0.57785326 -0.25254321 -1.1862141 7096609
-0.58213359 -0.25254321 -1.1862141 6832667
-0.58748406 -0.25254321 -1.1862141 6568984
-0.59283459 -0.25254321 -1.1862141 6634777
-0.59711504 -0.25254321 -1.186214 6568984
-0.60246545 -0.25254321 -1.1862141 6569240
-0.60781598 -0.25254321 -1.1862141 6568984
-0.61209637 -0.25254321 -1.186214 6569240
-0.61744684 -0.25254321 -1.186214 6437911
-0.62279737 -0.25254321 -1.1862141 6240278
-0.62707776 -0.25254321 -1.186214 6174486
-0.63242823 -0.25254321 -1.186214 6504217
-0.63777876 -0.25254321 -1.1862141 6372888
-0.64205909 -0.25254321 -1.186214 6174998
-0.64740962 -0.25254321 -1.1862141 6108949
-0.549963 -0.24978821 -1.1883801 4598546
-0.55216968 -0.2493324 -1.1862116 5518357
-0.55752009 -0.24933238 -1.1862115 5649942
-0.56287062 -0.24933238 -1.1862116 5649944
-0.56715107 -0.2493324 -1.1862116 5781530
-0.57250148 -0.24933238 -1.1862116 5847579
-0.57785201 -0.24933238 -1.1862116 5847580
-0.58213234 -0.24933238 -1.1862116 5913116
-0.58748287 -0.24933238 -1.1862115 5847838
-0.59283334 -0.24933238 -1.1862116 6175772
-0.59711373 -0.24933238 -1.1862116 5978139
-0.60246414 -0.24933237 -1.1862115 5977882
-0.60781467 -0.24933238 -1.1862116 6044186
-0.61209506 -0.24933238 -1.1862116 6044186
-0.61744553 -0.24933237 -1.1862115 5912343
-0.62279606 -0.24933238 -1.1862116 5846550
-0.62707639 -0.24933238 -1.1862116 5780758
-0.63242686 -0.24933237 -1.1862115 5912599
-0.63777733 -0.24933238 -1.1862116 5781270
-0.64205772 -0.24933237 -1.1862115 5517588
-0.64740819 -0.24933237 -1.1862115 5583123
-0.55003905 -0.34659988 -1.1931963 4927251
-0.5500356 -0.34229216 -1.1931889 4927252
-0.55003226 -0.3379845 -1.1931815 5058839
-0.55002803 -0.33260003 -1.1931725 5256733
-0.55002379 -0.32721561 -1.1931632 5322785
-0.55002034 -0.32290816 -1.1931558 5389095
-0.55001611 -0.31752393 -1.1931466 5652784
-0.55001187 -0.31213975 -1.1931374 5983035
-0.55000854 -0.30783248 -1.19313 6115650
-0.55000424 -0.30244848 -1.1931208 6116421
-0.54999912 -0.29598773 -1.1931098 5983036
-0.55000091 -0.29814133 -1.1931136 6049600
-0.54999661 -0.29275745 -1.1931043 5785397
-0.54999244 -0.28737366 -1.1930951 5587246
-0.54998815 -0.28198993 -1.1930859 5454887
-0.54998481 -0.27768308 -1.1930785 5323041
-0.54998052 -0.2722995 -1.1930693 5191197
-0.54997635 -0.26691604 -1.1930602 5059609
-0.54997289 -0.2626093 -1.1930528 4861974
-0.54996866 -0.25722599 -1.1930436 4796181
-0.54996443 -0.25184274 -1.1930344 4730644
-0.63387316 -0.24902155 -1.1949902 5059353
-0.63817608 -0.24901797 -1.194973 4927767
-0.64247876 -0.24901438 -1.1949557 4861973
-0.64678144 -0.2490108 -1.1949385 4927508
-0.55004001 -0.34796232 -1.1978867 5190421
-0.55003566 -0.34255657 -1.1978774 5058837
-0.55003136 -0.33715081 -1.197868 5124888
-0.55002797 -0.33282632 -1.1978607 5256733
-0.55002373 -0.32742074 -1.1978513 5323041
-0.5500195 -0.32201529 -1.1978421 5454888
-0.55001605 -0.31769097 -1.1978347 5652527
-0.55001181 -0.31228563 -1.1978254 5916985
-0.55000758 -0.30688038 -1.1978161 6115649
-0.55000412 -0.30255628 -1.1978087 6115907
-0.54999989 -0.29715115 -1.1977994 5983292
-0.55000168 -0.29931322 -1.1978033 6049856
-0.5499965 -0.29282716 -1.1977921 5785140
-0.5499922 -0.28742221 -1.1977828 5587245
-0.54998881 -0.28309831 -1.1977754 5389607
-0.54998457 -0.27769354 -1.1977662 5257249
-0.54998034 -0.27228883 -1.1977568 5191196
-0.54997694 -0.26796514 -1.1977494 5125403
-0.54997265 -0.26256058 -1.1977401 4993816
-0.54996842 -0.2571561 -1.1977309 4862231
-0.54996502 -0.25283259 -1.1977235 4796694
-0.54996246 -0.24958998 -1.1977179 4796438
-0.55209339 -0.24908894 -1.1953136 4927508
-0.5574761 -0.24908502 -1.1952949 4993302
-0.56285787 -0.24908073 -1.1952741 5190682
-0.56716281 -0.24907714 -1.1952569 5322526
-0.5725438 -0.24907267 -1.1952354 5388835
-0.57792455 -0.24906819 -1.1952139 5520938
-0.58222902 -0.24906461 -1.1951967 5718833
-0.58760947 -0.24906011 -1.1951752 5917499
-0.59298968 -0.24905564 -1.1951537 6115393
-0.59729379 -0.24905206 -1.1951365 6115907
-0.60267365 -0.24904756 -1.195115 5917499
-0.60805333 -0.24904308 -1.1950934 5719090
-0.6123569 -0.24903947 -1.1950762 5586988
-0.61773622 -0.24903499 -1.1950547 5389094
-0.62311542 -0.24903052 -1.1950332 5256991
-0.62741864 -0.24902692 -1.1950159 5191196
-0.63064593 -0.24902423 -1.195003 5125403
-0.55003917 -0.34716469 -1.2026104 5124886
-0.55003572 -0.342823 -1.2026029 5190679
-0.55003142 -0.33739594 -1.2025934 5256730
-0.55002713 -0.33196896 -1.202584 5388575
-0.55002367 -0.32762748 -1.2025765 5388833
-0.55001944 -0.32220066 -1.2025672 5586472
-0.55001515 -0.31677395 -1.2025578 5652783
-0.55001175 -0.31243265 -1.2025504 5850678
-0.55000836 -0.3080914 -1.202543 5983293
-0.55000407 -0.30266491 -1.2025336 6049600
-0.54999894 -0.29615322 -1.2025224 5916727
-0.55000067 -0.29832378 -1.2025262 5983035
-0.54999638 -0.2928974 -1.2025168 5718834
-0.54999208 -0.28747118 -1.2025075 5455403
-0.54998785 -0.28204498 -1.2024982 5257251
-0.5499844 -0.27770412 -1.2024906 5125406
-0.5499801 -0.2722781 -1.2024813 5059354
-0.54997587 -0.26685214 -1.202472 5191196
-0.54997241 -0.26251143 -1.2024645 5125659
-0.54996902 -0.25817084 -1.202457 5059867
-0.54996473 -0.25274506 -1.2024477 4928280
-0.5500384 -0.34636074 -1.2073715 5059350
-0.55003494 -0.34200186 -1.2073638 5190936
-0.55003142 -0.337643 -1.2073562 5322522
-0.55002707 -0.33219454 -1.2073468 5388574
-0.55002284 -0.32674617 -1.2073373 5454626
-0.55001938 -0.32238752 -1.2073298 5586215
-0.55001593 -0.31802899 -1.2073222 5520938
-0.55001169 -0.31258082 -1.2073127 5718835
-0.55000734 -0.30713278 -1.2073034 5851450
-0.55000401 -0.3027744 -1.2072959 5983292
-0.54999876 -0.29623693 -1.2072846 5785141
-0.55000138 -0.29950562 -1.2072902 5917242
-0.54999542 -0.2918787 -1.2072771 5653039
-0.54999197 -0.2875205 -1.2072695 5520938
-0.54998851 -0.28316236 -1.207262 5454885
-0.54998428 -0.27771476 -1.2072526 5256991
-0.54997993 -0.27226725 -1.2072432 5125403
-0.54997653 -0.26790929 -1.2072356 5125403
-0.54997224 -0.26246196 -1.2072263 5059610
-0.549968 -0.25701469 -1.2072169 4993817
-0.54996455 -0.25265691 -1.2072093 4862231
-0.54996192 -0.24938862 -1.2072036 4927766
-0.55254382 -0.24907973 -1.2057084 5059095
-0.55688751 -0.24907658 -1.2056931 5190679
-0.56231701 -0.24907267 -1.2056742 5322523
-0.56774634 -0.24906875 -1.2056552 5388575
-0.57208896 -0.24906531 -1.2056386 5454370
-0.57751662 -0.24906079 -1.2056166 5586216
-0.58294404 -0.24905626 -1.2055948 5652782
-0.58728588 -0.24905264 -1.2055774 5784885
-0.59271294 -0.24904811 -1.2055554 5917499
-0.59813976 -0.24904361 -1.2055335 5983292
-0.60248113 -0.24903998 -1.205516 5850934
-0.60682237 -0.24903637 -1.2054985 5653040
-0.61224872 -0.24903186 -1.2054766 5455145
-0.61767489 -0.24902734 -1.2054548 5323043
-0.6220156 -0.24902371 -1.2054372 5191198
-0.62744147 -0.24901916 -1.2054151 5125147
-0.6328671 -0.24901465 -1.2053933 5125403
-0.63720739 -0.24901104 -1.2053759 5059867
-0.64263266 -0.24900651 -1.2053539 4928281
-0.6480577 -0.24900201 -1.205332 4993302
-0.55003929 -0.3477385 -1.2121742 5322007
-0.55003494 -0.34226823 -1.2121646 5256472
-0.55003071 -0.33679801 -1.2121551 5322265
-0.55002719 -0.3324219 -1.2121475 5322523
-0.55002373 -0.32804587 -1.2121398 5322526
-0.55001938 -0.3225759 -1.2121302 5520163
-0.55001503 -0.31710604 -1.2121208 5586730
-0.55001158 -0.31273019 -1.2121131 5653039
-0.55000728 -0.30726051 -1.2121037 5850934
-0.55000293 -0.30179083 -1.2120941 5916727
-0.5499987 -0.2963213 -1.2120847 5850418
-0.55000043 -0.29850912 -1.2120885 5916469
-0.54999614 -0.29303962 -1.212079 5652782
-0.54999185 -0.28757021 -1.2120695 5520680
-0.54998744 -0.28210086 -1.21206 5388835
-0.54998404 -0.27772549 -1.2120523 5322784
-0.54997975 -0.27225628 -1.2120428 5190940
-0.5499754 -0.26678723 -1.2120334 5059096
-0.549972 -0.26241204 -1.2120259 4927511
-0.5499686 -0.25803688 -1.2120183 4861975
-0.54996425 -0.25256801 -1.2120088 4796181
-0.55003858 -0.34693041 -1.2170115 4993300
-0.550035 -0.34253669 -1.2170037 5124886
-0.55003154 -0.33814308 -1.216996 5190422
-0.55002719 -0.33265114 -1.2169864 5256473
-0.55002284 -0.32715923 -1.2169768 5322268
-0.55001932 -0.32276577 -1.216969 5454369
-0.55001503 -0.31727406 -1.2169595 5586215
-0.55001068 -0.31178242 -1.2169498 5652781
-0.55000722 -0.3073892 -1.2169421 5784626
-0.55000377 -0.30299604 -1.2169346 5784626
-0.54999852 -0.29640633 -1.216923 5718574
-0.55000114 -0.29970115 -1.2169287 5784625
-0.54999506 -0.29201329 -1.2169154 5520937
-0.54999161 -0.28762031 -1.2169077 5454629
-0.54998815 -0.28322738 -1.2169001 5388577
-0.54998392 -0.27773631 -1.2168905 5322783
-0.54997957 -0.27224529 -1.2168809 5256732
-0.54997611 -0.26785257 -1.2168734 4993303
-0.54997176 -0.26236174 -1.2168638 4861717
-0.54996741 -0.25687096 -1.2168541 4796181
-0.54996401 -0.25247842 -1.2168465 4730389
-0.54996139 -0.24918404 -1.2168407 4861716
-0.55300212 -0.24907035 -1.2162855 4993557
-0.55738395 -0.24906719 -1.2162701 5124630
-0.56176567 -0.24906403 -1.2162547 5190423
-0.56724268 -0.24906008 -1.2162353 5256474
-0.57271945 -0.2490561 -1.216216 5388318
-0.57710075 -0.24905294 -1.2162006 5454626
-0.58257657 -0.24904869 -1.2161798 5586472
-0.58805144 -0.24904412 -1.2161574 5718575
-0.59243119 -0.24904048 -1.2161398 5784626
-0.59681082 -0.24903685 -1.2161219 5784882
-0.60228521 -0.24903227 -1.2160996 5718574
-0.60775942 -0.24902773 -1.2160773 5520937
-0.61213863 -0.24902406 -1.2160596 5454629
-0.6176123 -0.2490195 -1.2160373 5323041
-0.62308598 -0.24901494 -1.2160151 5256734
-0.62746471 -0.24901131 -1.2159972 5125147
-0.63184327 -0.24900764 -1.2159793 5059096
-0.63731635 -0.24900307 -1.215957 4927510
-0.64278924 -0.24899852 -1.2159348 4861717
-0.64716738 -0.24899486 -1.2159169 4927252
-0.55003768 -0.34611583 -1.2218874 4861201
-0.55003422 -0.34170455 -1.2218797 4860946
-0.55003071 -0.33729333 -1.2218719 4992532
-0.55002725 -0.33288214 -1.2218641 5190424
-0.55002284 -0.32736826 -1.2218544 5388061
-0.55001843 -0.32185441 -1.2218447 5454112
-0.55001497 -0.31744343 -1.2218368 5520676
-0.55001152 -0.31303251 -1.2218292 5586473
-0.55000716 -0.30751896 -1.2218194 5586988
-0.55000281 -0.30200547 -1.2218099 5652524
-0.54999846 -0.29649207 -1.2218002 5586729
-0.55000019 -0.29869741 -1.221804 5652523
-0.54999584 -0.2931841 -1.2217944 5454886
-0.54999149 -0.28767085 -1.2217848 5323041
-0.54998714 -0.28215766 -1.2217751 5256990
-0.54998374 -0.27774721 -1.2217674 5256733
-0.54997933 -0.2722342 -1.2217578 5190938
-0.54997504 -0.26672131 -1.2217481 5059095
-0.54997152 -0.26231101 -1.2217405 4927509
-0.54996812 -0.2579008 -1.2217327 4795924
-0.54996377 -0.25238812 -1.2217231 4796181
-0.55003864 -0.34750926 -1.2268066 4992787
-0.55003512 -0.34308019 -1.2267988 4794897
-0.55003077 -0.33754396 -1.226789 4926739
-0.55002636 -0.3320078 -1.2267792 5190424
-0.55002284 -0.32757893 -1.2267714 5388316
-0.55001932 -0.32315013 -1.2267635 5454366
-0.55001491 -0.31761423 -1.2267537 5520162
-0.55001056 -0.31207836 -1.2267439 5520679
-0.55000699 -0.30764973 -1.2267361 5586729
-0.55000353 -0.30322123 -1.2267283 5586729
-0.54999828 -0.29657847 -1.2267165 5520422
-0.55000097 -0.29989985 -1.2267225 5586472
-0.54999483 -0.29215014 -1.2267089 5323041
-0.54999137 -0.28772175 -1.226701 5256734
-0.54998785 -0.28329349 -1.2266933 5256732
-0.54998356 -0.27775821 -1.2266836 5190939
-0.54997909 -0.272223 -1.2266738 5190938
-0.54997569 -0.26779497 -1.2266662 5059095
-0.54997128 -0.2622599 -1.2266563 4729876
-0.54996693 -0.25672495 -1.2266467 4730131
-0.54996347 -0.25229704 -1.2266388 4730389
-0.55236334 -0.24906158 -1.2270539 4861202
-0.55788922 -0.24905762 -1.2270343 4926995
-0.56230974 -0.24905443 -1.2270186 4992788
-0.56673002 -0.24905124 -1.2270029 5124631
-0.57225531 -0.24904726 -1.2269832 5256731
-0.57778049 -0.24904326 -1.2269635 5388318
-0.58220041 -0.24904007 -1.2269478 5454114
-0.58772522 -0.24903607 -1.2269281 5454886
-0.5932492 -0.24903178 -1.226907 5520680
-0.59766757 -0.24902812 -1.2268889 5520679
-0.60208583 -0.24902444 -1.2268708 5454885
-0.6076085 -0.24901985 -1.2268481 5323041
-0.61313093 -0.24901524 -1.2268255 5256990
-0.6175487 -0.24901155 -1.2268072 5190940
-0.62196642 -0.24900785 -1.2267891 5124890
-0.62748832 -0.24900325 -1.2267665 4993560
-0.63301003 -0.24899867 -1.2267438 4861461
-0.63742727 -0.24899499 -1.2267257 4729876
-0.64184427 -0.24899128 -1.2267075 4729875
-0.64736551 -0.24898671 -1.2266848 4795666
-0.55003786 -0.34669048 -1.2317617 4729360
-0.55003428 -0.34224349 -1.2317536 4926994
-0.55003083 -0.33779663 -1.2317457 4992531
-0.55002636 -0.33223808 -1.2317361 5058837
-0.55002195 -0.32667965 -1.2317259 5256216
-0.55001843 -0.32223296 -1.2317181 5256474
-0.55001491 -0.31778634 -1.2317102 5256476
-0.5500105 -0.31222814 -1.2317004 5322785
-0.55000609 -0.30667001 -1.2316904 5388579
-0.55000257 -0.30222356 -1.2316825 5388834
-0.54999906 -0.29777724 -1.2316747 5322784
-0.5499956 -0.29333094 -1.231667 5256990
-0.54999119 -0.28777313 -1.2316571 5256733
-0.54998678 -0.28221536 -1.2316473 5124891
-0.54998326 -0.27776927 -1.2316394 4993047
-0.54997981 -0.27332324 -1.2316315 4927510
-0.54997545 -0.26776573 -1.2316217 4861204
-0.54997104 -0.26220834 -1.231612 4597778
-0.54996753 -0.25776249 -1.2316041 4598033
-0.54996407 -0.2533167 -1.2315962 4598547
-0.54996139 -0.2499824 -1.2315904 4598546
-0.55003798 -0.34698126 -1.2367588 4729104
-0.5500344 -0.34251627 -1.2367507 4926994
-0.55002993 -0.3369351 -1.2367408 4992787
-0.55002642 -0.33247024 -1.2367328 5058580
-0.55002284 -0.32800546 -1.2367249 5124630
-0.55001837 -0.32242453 -1.236715 5190424
-0.55001402 -0.31684369 -1.2367051 5190426
-0.55001044 -0.31237912 -1.236697 5190941
-0.55000687 -0.30791456 -1.236689 5191198
-0.55000246 -0.30233395 -1.236679 5256734
-0.54999804 -0.29675347 -1.2366691 5190940
-0.54999453 -0.29228914 -1.2366612 5190682
-0.54999101 -0.28782487 -1.2366533 5190683
-0.54998666 -0.28224459 -1.2366434 4993304
-0.54998231 -0.27666444 -1.2366335 4861205
-0.54997873 -0.27220038 -1.2366257 4795668
-0.54997522 -0.26773638 -1.2366178 4729875
-0.5499717 -0.2632724 -1.2366099 4663826
-0.54996735 -0.25769255 -1.2365999 4598033
-0.54996288 -0.25211275 -1.2365901 4532497
-0.55171329 -0.2490527 -1.2380147 4729617
-0.55728847 -0.24904869 -1.2379947 4861201
-0.56286335 -0.24904466 -1.2379746 4993043
-0.56732321 -0.24904144 -1.2379587 5124630
-0.57178295 -0.24903822 -1.2379427 5256216
-0.57735741 -0.24903418 -1.2379225 5256474
-0.58293164 -0.24903014 -1.2379025 5322525
-0.58739102 -0.24902692 -1.2378864 5322526
-0.59185028 -0.24902374 -1.2378706 5322784
-0.59742403 -0.2490197 -1.2378505 5322527
-0.6029973 -0.24901551 -1.2378297 5190940
-0.6074549 -0.2490118 -1.2378113 5124890
-0.61191237 -0.24900809 -1.2377928 5124889
-0.61748403 -0.24900346 -1.2377697 5058840
-0.62305546 -0.24899882 -1.2377467 4993303
-0.62751245 -0.2489951 -1.2377282 4927766
-0.63196933 -0.24899139 -1.2377098 4861717
-0.63754016 -0.24898674 -1.2376868 4730131
-0.64311087 -0.2489821 -1.2376637 4664339
-0.64756727 -0.24897839 -1.2376451 4795410
-0.55003798 -0.34727442 -1.2417965 4860945
-0.5500344 -0.34279123 -1.2417886 4926994
-0.55003083 -0.33830813 -1.2417805 4926994
-0.55002642 -0.33270431 -1.2417705 5058837
-0.55002201 -0.32710057 -1.2417605 5190422
-0.55001843 -0.32261765 -1.2417524 5256216
-0.55001485 -0.31813478 -1.2417443 5256473
-0.55001038 -0.31253129 -1.2417344 5190683
-0.55000591 -0.30692792 -1.2417243 5256732
-0.5500024 -0.30244523 -1.2417163 5256732
-0.54999888 -0.29796267 -1.2417083 5125146
-0.54999441 -0.29235947 -1.2416981 5059096
-0.54999006 -0.28675646 -1.2416883 4993303
-0.54998648 -0.28227407 -1.2416804 4927511
-0.54998291 -0.27779174 -1.2416723 4927254
-0.54997945 -0.27330947 -1.2416644 4861717
-0.54997498 -0.26770672 -1.2416545 4861460
-0.54997063 -0.26210403 -1.2416444 4730131
-0.54996705 -0.25762197 -1.2416365 4664339
-0.54996353 -0.25313997 -1.2416285 4598290
-0.54996091 -0.24977852 -1.2416226 4598289
-0.55003715 -0.34644461 -1.2468736 4795408
-0.55003357 -0.34194309 -1.2468655 4860945
-0.55002999 -0.33744162 -1.2468574 4992787
-0.55002642 -0.33294028 -1.2468493 5190422
-0.55002195 -0.32731363 -1.2468392 5256472
-0.55001754 -0.32168707 -1.2468292 5322265
-0.5500139 -0.31718588 -1.2468209 5322522
-0.55001038 -0.31268477 -1.2468129 5322781
-0.55000681 -0.30818373 -1.2468048 5322524
-0.55000228 -0.30255744 -1.2467946 5322779
-0.54999787 -0.2969313 -1.2467846 5190681
-0.54999429 -0.29243043 -1.2467765 4927510
-0.54999077 -0.28792965 -1.2467685 4861204
-0.54998624 -0.28230372 -1.2467583 4993046
-0.54998183 -0.27667791 -1.2467482 5059352
-0.54997832 -0.27217734 -1.2467402 5059352
-0.5499748 -0.26767683 -1.2467322 5059351
-0.54997122 -0.26317635 -1.2467241 4928022
-0.54996675 -0.25755087 -1.2467141 4796436
-0.5499624 -0.25192547 -1.2467041 4664595
-0.55217659 -0.24904287 -1.249169 4729616
-0.55667686 -0.24903959 -1.2491525 4795409
-0.56230205 -0.24903554 -1.2491322 4927251
-0.56792706 -0.24903147 -1.2491119 5124629
-0.57242697 -0.24902822 -1.2490956 5190679
-0.57692671 -0.24902496 -1.2490792 5256472
-0.5825513 -0.24902092 -1.2490588 5256474
-0.58817565 -0.24901685 -1.2490385 5256731
-0.59267497 -0.24901359 -1.2490222 5256731
-0.59717429 -0.24901035 -1.2490059 5256474
-0.60167336 -0.24900708 -1.2489896 5124888
-0.60729706 -0.24900304 -1.2489692 4993302
-0.61292052 -0.24899891 -1.2489486 4993046
-0.61741805 -0.2489952 -1.24893 4993302
-0.62191546 -0.24899146 -1.2489111 4993302
-0.62753689 -0.24898677 -1.2488877 4927766
-0.63315821 -0.24898209 -1.2488642 4927765
-0.63765508 -0.24897835 -1.2488453 4796436
-0.64215177 -0.24897459 -1.2488265 4730387
-0.64664841 -0.24897087 -1.2488079 4795666
-0.5500381 -0.34786797 -1.2519965 5058323
-0.55003452 -0.34334797 -1.2519883 4795409
-0.55003005 -0.33769807 -1.251978 4926738
-0.55002558 -0.33204821 -1.2519679 5058836
-0.55002201 -0.32752842 -1.2519598 5124886
-0.55001837 -0.32300869 -1.2519516 5190423
-0.5500139 -0.31735909 -1.2519413 5190679
-0.55000943 -0.31170958 -1.2519312 5322779
-0.55000585 -0.30719006 -1.2519231 5256987
-0.55000222 -0.30267057 -1.2519147 5256986
-0.54999864 -0.29815117 -1.2519066 5190936
-0.54999417 -0.29250199 -1.2518965 4861460
-0.5499897 -0.28685287 -1.2518862 4795155
-0.54998606 -0.28233367 -1.251878 4861716
-0.54998255 -0.27781451 -1.2518699 4993302
-0.54997903 -0.27329546 -1.2518619 4993558
-0.54997456 -0.2676467 -1.2518518 4928022
-0.54997003 -0.261998 -1.2518415 4862229
-0.54996657 -0.25747913 -1.2518336 4796436
-0.549963 -0.25296032 -1.2518255 4664852
-0.54996032 -0.24957126 -1.2518194 4598802
-0.55003726 -0.34703374 -1.2571574 4795409
-0.55003369 -0.34249514 -1.2571492 4729616
-0.55003005 -0.33795655 -1.2571409 4729616
-0.55002552 -0.33228341 -1.2571306 5059094
-0.55002105 -0.32661039 -1.2571204 5190936
-0.55001748 -0.32207203 -1.2571123 5256729
-0.5500139 -0.31753373 -1.2571039 5256729
-0.5500102 -0.31299543 -1.2570956 5256730
-0.55000573 -0.30732274 -1.2570854 5191193
-0.55000126 -0.30165011 -1.2570751 5125143
-0.54999763 -0.29711205 -1.2570668 5124886
-0.54999411 -0.29257411 -1.2570586 4993301
-0.54999042 -0.28803617 -1.2570504 4993044
-0.54998595 -0.28236386 -1.2570401 5059093
-0.54998147 -0.27669162 -1.2570298 4993557
-0.5499779 -0.27215394 -1.2570217 5059350
-0.54997432 -0.26761633 -1.2570136 4928021
-0.54997075 -0.26307875 -1.2570053 4862485
-0.54996628 -0.25740686 -1.2569952 4730900
-0.54996181 -0.25173503 -1.2569849 4599058
-0.55003643 -0.34619263 -1.262361 4598032
-0.55003279 -0.3416352 -1.2623527 4598032
-0.55002922 -0.33707786 -1.2623446 4729616
-0.55002558 -0.33252057 -1.2623363 4993301
-0.55002201 -0.32796335 -1.2623279 5059350
-0.55001837 -0.32340616 -1.2623196 4993302
-0.5500139 -0.3177098 -1.2623093 4993302
-0.55000925 -0.31201351 -1.2622988 4993302
-0.55000567 -0.30745655 -1.2622906 4993301
-0.55000204 -0.3028996 -1.2622821 4993301
-0.54999846 -0.29834276 -1.262274 4993300
-0.54999393 -0.29264683 -1.2622637 4927252
-0.54998946 -0.28695095 -1.2622533 4926995
-0.54998577 -0.28239429 -1.2622449 4993557
-0.54998219 -0.27783772 -1.2622366 4993557
-0.54997861 -0.27328122 -1.2622283 4927765
-0.54997408 -0.26758569 -1.262218 4861716
-0.54996961 -0.26189023 -1.2622077 4730387
-0.54996598 -0.25733393 -1.2621994 4599059
-0.5499624 -0.2527777 -1.2621913 4533010
-0.54995972 -0.24936058 -1.2621851 4532753
-0.55264825 -0.2490328 -1.2605259 4664081
-0.55718946 -0.24902952 -1.2605094 4729873
-0.5617305 -0.24902624 -1.2604928 4861458
-0.56740671 -0.24902214 -1.2604719 4993301
-0.57308269 -0.24901804 -1.2604513 5124886
-0.57762337 -0.24901477 -1.2604346 5059094
-0.58216393 -0.24901149 -1.2604182 5059094
-0.58670437 -0.24900821 -1.2604015 5059351
-0.59237975 -0.24900411 -1.2603807 5059094
-0.59805489 -0.24900001 -1.26036 5059093
-0.60259485 -0.2489967 -1.2603433 4993044
-0.60713482 -0.24899346 -1.2603269 4861460
-0.61167455 -0.24899015 -1.2603102 4861460
-0.61734909 -0.24898605 -1.2602893 4927508
-0.62302351 -0.24898195 -1.2602687 4927765
-0.62756181 -0.24897829 -1.2602501 4927508
-0.63209981 -0.24897453 -1.260231 4861972
-0.63663757 -0.24897073 -1.2602118 4796179
-0.64230967 -0.24896602 -1.260188 4664595
-0.64798152 -0.24896128 -1.260164 4664338
-0.55003738 -0.34763271 -1.2676122 4993043
-0.55003381 -0.34305635 -1.2676039 4729873
-0.55002922 -0.33733597 -1.2675935 4795666
-0.55002469 -0.33161566 -1.2675829 4993300
-0.55002105 -0.32703948 -1.2675745 5059093
-0.55001742 -0.32246336 -1.2675662 4861716
-0.55001378 -0.31788734 -1.2675579 4861203
-0.5500102 -0.31331134 -1.2675495 4861459
-0.55000561 -0.30759144 -1.267539 4861459
-0.55000108 -0.30187163 -1.2675285 4861458
-0.54999745 -0.29729587 -1.2675202 4861458
-0.54999387 -0.29272014 -1.2675118 4795666
-0.54999018 -0.2881445 -1.2675035 4795666
-0.54998565 -0.28242502 -1.267493 4861972
-0.54998112 -0.27670562 -1.2674825 4796180
-0.54997748 -0.27213016 -1.2674742 4795922
-0.54997385 -0.26755479 -1.2674658 4729873
-0.54997021 -0.26297945 -1.2674575 4598545
-0.54996669 -0.25840425 -1.2674491 4532753
-0.5499621 -0.25268528 -1.2674388 4466961
-0.55003655 -0.34678707 -1.272903 4664337
-0.55003297 -0.34219161 -1.2728946 4795922
-0.55002922 -0.33759618 -1.272886 4795922
-0.55002564 -0.33300084 -1.2728777 4861971
-0.55002201 -0.32840553 -1.2728692 4993301
-0.55001742 -0.32266149 -1.2728587 4861459
-0.55001283 -0.31691757 -1.2728481 4795410
-0.55000925 -0.3123225 -1.2728398 4795666
-0.55000556 -0.30772746 -1.2728312 4795666
-0.55000192 -0.30313253 -1.2728229 4795666
-0.54999739 -0.29738891 -1.2728122 4795666
-0.5499928 -0.29164541 -1.2728019 4729873
-0.54998916 -0.28705066 -1.2727933 4729874
-0.54998553 -0.28245598 -1.2727849 4795666
-0.54998183 -0.27786133 -1.2727764 4730131
-0.54997826 -0.27326679 -1.272768 4664081
-0.54997367 -0.26752368 -1.2727575 4598288
-0.54996908 -0.26178065 -1.2727469 4532496
-0.5499655 -0.25718629 -1.2727385 4466960
-0.54996186 -0.25259203 -1.2727301 4335633
-0.54995918 -0.24914637 -1.2727239 4467217
-0.5531286 -0.24902257 -1.2720914 4598288
-0.55771142 -0.24901924 -1.2720745 4664081
-0.56229413 -0.24901593 -1.2720575 4729874
-0.56687677 -0.24901262 -1.2720406 4795923
-0.57260489 -0.24900849 -1.2720195 4861459
-0.57833278 -0.24900436 -1.2719984 4795667
-0.58291501 -0.24900106 -1.2719815 4795667
-0.58749712 -0.24899775 -1.2719647 4861459
-0.59207904 -0.24899444 -1.2719479 4861458
-0.59666085 -0.2489911 -1.2719308 4795922
-0.60238796 -0.248987 -1.2719097 4795922
-0.6081149 -0.24898285 -1.2718885 4729874
-0.61269629 -0.24897954 -1.2718716 4730130
-0.61727762 -0.24897623 -1.2718549 4730130
-0.62185872 -0.24897292 -1.2718379 4730130
-0.62758505 -0.24896878 -1.2718167 4664081
-0.63331115 -0.24896465 -1.2717956 4598288
-0.63789117 -0.24896109 -1.2717774 4466960
-0.64247048 -0.24895728 -1.271758 4401168
-0.64704967 -0.24895345 -1.2717384 4532497
